ply
format ascii 1.0
element vertex 189
property float x
property float y
property float z
property uchar diffuse_red
property uchar diffuse_green
property uchar diffuse_blue
end_header
-0.213604 -0.184241 1.712479 61 51 59
-0.215321 -0.084394 1.722462 50 50 50
-0.215321 -0.084394 1.722462 50 50 50
-0.214944 -0.066404 1.723742 59 48 52
-0.210099 -0.026573 1.726143 115 111 108
-0.210194 0.007910 1.728449 116 106 107
-0.201868 -0.102575 1.718802 74 67 74
-0.201868 -0.102575 1.718802 74 67 74
-0.210062 0.104100 1.735735 129 116 123
-0.199639 0.008641 1.726567 81 66 71
-0.200745 0.072045 1.731799 101 81 92
-0.190767 -0.133613 1.712243 70 62 73
-0.193992 -0.027235 1.721839 100 91 96
-0.198262 0.106981 1.732775 125 109 122
-0.185599 -0.178662 1.706526 81 76 80
-0.196253 0.122418 1.732358 93 83 94
-0.196253 0.122418 1.732358 93 83 94
-0.192811 0.158141 1.736519 92 73 77
-0.183932 -0.042785 1.719474 85 71 71
-0.184913 0.148372 1.733654 87 70 76
-0.172324 -0.143519 1.708020 75 68 76
-0.173019 -0.094061 1.713165 71 62 67
-0.173019 -0.094061 1.713165 71 62 67
-0.181610 0.120165 1.731173 83 77 81
-0.177917 0.084853 1.728203 97 95 98
-0.177917 0.084853 1.728203 97 95 98
-0.174849 0.079097 1.727941 76 65 71
-0.160947 -0.146525 1.705895 127 111 112
-0.167844 0.103383 1.729688 98 88 97
-0.154237 -0.086814 1.709534 104 99 93
-0.138985 -0.161144 1.699591 147 141 145
-0.144565 0.149364 1.727332 74 70 71
-0.132648 -0.112637 1.704609 77 66 80
-0.117487 0.147615 1.721962 100 84 87
-0.078011 -0.174487 1.685691 131 120 116
-0.043229 -0.203950 1.679713 199 188 184
-0.304086 0.359941 1.344472 81 86 105
-0.038313 -0.199063 1.677234 103 93 101
-0.284638 0.356939 1.340987 133 159 182
-0.269298 0.356008 1.338170 124 142 152
-0.080665 -0.035884 1.531315 166 153 136
-0.081076 -0.021048 1.530057 178 177 172
-0.078231 0.010411 1.530892 127 114 106
-0.076079 -0.023025 1.527607 86 76 74
-0.076079 -0.023025 1.527607 86 76 74
-0.007990 0.155346 1.647590 73 79 77
-0.077646 -0.006975 1.527092 137 125 113
-0.067259 -0.034045 1.524216 90 90 88
-0.062324 0.055054 1.537113 122 142 140
-0.060166 -0.030229 1.517546 180 199 197
0.070440 -0.198338 1.657835 121 112 115
-0.222019 0.325276 1.318105 59 50 115
-0.219046 0.322635 1.319170 154 169 212
0.069304 0.211376 1.692626 42 38 39
-0.219793 0.367241 1.308455 89 88 132
0.101286 -0.179056 1.653984 119 107 111
-0.019678 -0.010452 1.502500 164 178 178
-0.000030 -0.010325 1.499034 45 56 52
-0.000030 -0.010325 1.499034 45 56 52
0.131461 -0.199549 1.643869 78 67 65
0.005860 0.032514 1.506508 153 169 168
0.023986 -0.033809 1.500087 160 154 138
0.146281 0.166089 1.674304 71 66 73
-0.143561 0.358009 1.312899 138 173 195
-0.135101 0.361872 1.323738 148 175 202
0.051608 -0.011779 1.501042 128 145 129
-0.143006 0.335145 1.304371 52 51 108
-0.140783 0.327992 1.304452 75 58 113
-0.126216 0.349820 1.307964 132 168 190
-0.122278 0.342270 1.305926 119 148 156
-0.107387 0.371935 1.307246 57 53 68
-0.095990 0.375364 1.301888 101 87 123
-0.073280 0.363710 1.297124 127 159 184
-0.046370 0.368534 1.295761 102 138 162
-0.035269 0.369188 1.293340 117 151 178
-0.022625 0.354623 1.290132 124 161 190
-0.020796 0.343443 1.288729 101 120 153
-0.007125 0.344338 1.285909 106 130 156
0.005190 0.382211 1.292650 88 77 117
-0.001903 0.379121 1.285125 82 80 119
0.005130 0.379530 1.282955 88 77 117
0.047696 0.383375 1.275656 85 85 119
0.047696 0.383375 1.275656 85 85 119
0.066330 0.383805 1.270850 95 87 128
0.073040 0.369434 1.274467 70 86 111
-0.213724 -0.173537 1.713747 64 49 52
-0.207763 -0.176768 1.712486 112 97 100
-0.208252 -0.143982 1.715462 112 97 102
-0.208393 -0.130667 1.716391 107 98 101
-0.200534 -0.142214 1.715116 78 71 89
-0.209086 0.076073 1.733526 123 116 124
-0.209197 0.094905 1.735129 130 113 123
-0.201730 -0.002926 1.726688 85 72 79
-0.197971 0.130622 1.734044 121 112 117
-0.183058 -0.157782 1.709074 78 71 79
-0.195009 0.092971 1.728049 92 82 90
-0.164898 -0.121299 1.708528 79 70 71
-0.167195 -0.036980 1.714905 127 109 121
-0.156295 -0.186412 1.705004 104 86 86
-0.168232 0.116712 1.729719 97 90 97
-0.168232 0.116712 1.729719 97 90 97
-0.158866 -0.075463 1.710927 108 93 96
-0.164277 0.128076 1.726886 112 92 104
-0.146941 -0.143959 1.703558 64 58 70
-0.134348 0.169965 1.727978 75 63 65
-0.119824 -0.176528 1.695707 124 120 121
-0.024859 -0.174642 1.634851 96 110 119
-0.021735 -0.160792 1.633548 82 95 104
-0.263738 0.373728 1.333560 106 117 113
-0.251420 0.367945 1.336989 49 50 70
0.000077 0.159048 1.644152 84 83 79
-0.067218 0.034742 1.530044 136 150 153
-0.219330 0.340596 1.325135 100 110 111
-0.049764 0.012653 1.514898 108 94 85
-0.215256 0.326062 1.317411 48 51 106
-0.033721 0.019351 1.511163 89 99 90
-0.028512 0.015491 1.508112 165 179 182
-0.019322 0.041599 1.513873 157 179 177
-0.190615 0.374575 1.321133 104 100 137
-0.155170 0.337101 1.338436 61 54 108
0.013748 0.001226 1.498817 133 154 137
0.152823 -0.191059 1.637293 136 139 112
0.032820 -0.019205 1.498778 61 68 74
0.163636 -0.201594 1.635473 95 100 93
-0.133794 0.358255 1.311120 148 175 202
-0.052428 0.309184 1.376945 32 27 31
-0.117479 0.328950 1.299333 71 66 106
-0.021707 0.300879 1.350329 39 46 74
-0.004344 0.268668 1.334175 67 101 146
-0.023214 0.359714 1.291076 100 127 148
0.058206 0.361916 1.277176 123 139 165
0.073976 0.383134 1.267728 79 69 103
-0.662595 0.294605 2.013451 167 228 255
-0.208441 -0.008948 1.726381 113 104 109
-0.196618 -0.112388 1.716120 108 98 99
-0.186813 -0.026681 1.720894 127 121 135
-0.186813 -0.026681 1.720894 127 121 135
-0.170522 -0.197197 1.703983 100 73 82
-0.183398 0.138683 1.732923 123 107 117
-0.156156 -0.161721 1.704312 93 82 90
-0.167163 0.137149 1.730369 122 102 113
-0.056691 -0.203584 1.682083 201 191 190
-0.279161 0.373429 1.336167 111 123 145
-0.024690 -0.166680 1.634491 32 39 45
-0.217126 0.284206 1.398028 185 191 179
-0.258316 0.349539 1.336409 132 160 174
-0.009703 0.171317 1.659670 43 45 42
-0.181315 0.342866 1.317491 117 156 173
0.008745 0.050531 1.514896 126 150 152
0.136923 -0.205268 1.642918 209 212 185
0.010375 0.010141 1.498941 159 180 185
-0.286823 0.063056 1.725571 223 217 201
-0.243848 -0.063543 1.761392 223 215 202
-0.155015 0.135769 1.727521 73 67 71
-0.140300 -0.181317 1.701113 121 114 122
-0.264047 0.320014 1.330973 170 188 224
-0.078846 -0.029486 1.529652 77 68 59
-0.069882 -0.058965 1.532342 193 176 166
0.052967 -0.178370 1.662912 114 98 99
-0.035183 -0.049871 1.510909 185 171 162
0.088586 -0.183315 1.655194 124 108 118
0.113684 -0.206099 1.646691 179 180 164
-0.000883 -0.070526 1.509136 191 208 190
-0.060578 0.356402 1.294767 87 107 131
-0.005871 0.368528 1.291177 121 149 186
-0.138714 -0.195875 1.698182 95 85 86
-0.169634 0.186995 1.585513 101 102 88
-0.004495 0.181062 1.657611 151 155 141
-0.029066 -0.007989 1.505473 144 156 152
-0.058375 0.349353 1.296253 79 94 125
-0.393936 -0.718123 3.549002 173 169 158
-0.358016 -0.885633 3.541122 168 165 156
0.236452 0.109221 1.354698 173 211 255
-0.326768 -0.651996 3.548702 175 175 163
-0.178707 -0.144606 1.711169 59 59 71
-0.254000 0.328655 1.324273 55 59 96
-0.032086 -0.058968 1.514493 166 146 135
-0.072869 0.339557 1.300551 46 60 87
-0.054587 -0.023549 1.514684 170 183 173
-0.093731 0.356844 1.304260 129 158 166
-0.093731 0.356844 1.304260 129 158 166
-0.028408 0.357453 1.284303 105 122 148
-0.028408 0.357453 1.284303 105 122 148
-0.452035 -0.665905 3.549160 177 170 160
-0.135965 0.212999 1.565796 34 42 44
0.442622 -0.999378 3.408508 153 154 146
-0.005752 -0.171080 1.640519 30 32 27
0.000000 0.000000 0.000000 255 0 0
-0.941941 0.043768 -0.332914 255 0 0
