ply
format ascii 1.0
element vertex 268
property float x
property float y
property float z
property uchar diffuse_red
property uchar diffuse_green
property uchar diffuse_blue
end_header
-1.133602 -0.461570 2.022733 221 224 229
-1.173477 0.048011 2.093546 104 111 119
-0.847510 -0.222834 2.051595 106 109 114
-0.847510 -0.222834 2.051595 106 109 114
-0.500551 -0.222890 2.161500 35 133 178
-0.497865 -0.037506 2.192998 24 51 80
-0.474743 -0.144390 2.182026 186 93 60
-0.464439 -0.110913 2.190977 115 37 17
-0.450688 -0.186554 2.184033 202 120 60
-0.457304 -0.105749 2.194868 121 39 17
-0.413716 0.012200 2.234573 18 78 128
-0.413716 0.012200 2.234573 18 78 128
-0.381992 -0.122962 2.220733 124 75 68
-0.378684 -0.095266 2.225794 62 22 12
-0.366940 -0.180135 2.216441 95 25 13
-0.366940 -0.180135 2.216441 95 25 13
-0.347545 -0.354007 2.195137 151 186 214
-0.384626 0.052285 2.252281 155 166 184
-0.371248 0.057611 2.259249 22 61 90
-0.302600 -0.448817 2.196147 162 200 237
-0.324797 0.018619 2.271835 9 51 93
-0.280223 -0.185730 2.251823 52 66 69
-0.269341 -0.182458 2.258193 158 129 89
-0.269341 -0.182458 2.258193 158 129 89
-0.260323 -0.204176 2.256212 111 93 79
-0.249591 -0.222662 2.259599 135 113 100
-0.252205 -0.172488 2.265555 111 77 50
-0.237678 -0.165802 2.275230 141 119 106
-0.220481 -0.048283 2.309576 52 41 19
-0.205996 -0.202390 2.283130 152 105 77
-0.188477 -0.340700 2.263134 148 151 160
-0.194643 -0.207057 2.284736 66 66 68
-0.193165 -0.203177 2.288616 128 133 126
-0.203943 0.036412 2.341553 23 58 88
-0.140460 -0.574545 2.240573 73 149 199
-0.129692 -0.333658 2.290841 189 175 175
-0.133930 0.028539 2.374507 161 167 189
-0.108656 0.016438 2.386827 156 162 186
-0.010996 -0.299369 2.178208 194 194 184
0.004624 -0.288918 2.156682 195 181 146
0.082929 -0.135197 2.087154 69 71 60
0.139247 -0.251492 1.972235 207 203 174
0.216806 -0.226914 1.869322 31 28 9
-0.264345 0.064874 0.937155 89 26 9
-1.261729 -0.045353 2.091989 145 127 127
-1.151873 -0.360668 2.002217 100 126 153
-1.019563 -0.227994 2.058015 80 83 92
-1.007063 -0.041846 2.078508 118 118 128
-1.007063 -0.041846 2.078508 118 118 128
-0.928391 -0.228861 2.055214 86 89 98
-0.850399 -0.226113 2.051267 222 223 227
-0.828518 -0.397842 2.026473 223 226 235
-0.828278 -0.388020 2.026715 225 232 240
-0.762366 -0.388199 2.022206 229 232 237
-0.719787 -0.403262 2.015930 180 183 188
-0.719355 -0.378571 2.018458 218 221 226
-0.719355 -0.378571 2.018458 218 221 226
-0.491769 -0.129042 2.180085 81 28 10
-0.491769 -0.129042 2.180085 81 28 10
-0.485730 -0.135936 2.180049 90 16 5
-0.481649 -0.131527 2.183033 175 89 54
-0.464097 -0.165201 2.182719 99 42 13
-0.464759 -0.160355 2.183735 194 96 71
-0.462646 -0.129466 2.188694 147 61 48
-0.456267 -0.167054 2.183272 184 93 62
-0.427487 -0.207654 2.187565 140 64 30
-0.442944 0.011357 2.219592 49 40 35
-0.447507 0.074066 2.229380 169 180 200
-0.426641 -0.103570 2.205773 142 67 48
-0.395506 -0.088497 2.221216 155 65 54
-0.395506 -0.088497 2.221216 155 65 54
-0.382515 -0.192121 2.206723 136 45 24
-0.382409 -0.167449 2.213088 121 63 52
-0.373050 -0.171494 2.214436 134 66 53
-0.367847 -0.144264 2.219228 55 21 19
-0.375924 -0.000080 2.245860 29 72 107
-0.253558 -0.559797 2.198546 64 146 193
-0.268853 -0.328845 2.230425 189 168 165
-0.239608 -0.470544 2.218202 194 195 216
-0.260849 -0.168382 2.263908 60 60 52
-0.269288 0.000192 2.298105 107 124 140
-0.259607 -0.077273 2.283615 77 111 74
-0.257469 -0.087857 2.282716 54 88 53
-0.250875 -0.091916 2.284159 109 149 99
-0.257491 0.034995 2.311992 179 175 192
-0.232919 -0.112739 2.288559 123 148 93
-0.226783 -0.176424 2.278350 139 103 89
-0.229484 -0.101761 2.293522 143 138 82
-0.213034 -0.218024 2.275266 128 109 95
-0.217410 -0.168168 2.284966 176 158 146
-0.201567 -0.184198 2.288288 169 166 157
-0.203507 -0.110868 2.303461 69 48 17
-0.168285 -0.477096 2.246900 176 192 215
-0.168285 -0.477096 2.246900 176 192 215
-0.208850 0.031501 2.335664 145 143 167
-0.169446 -0.409093 2.257763 178 185 214
-0.152984 -0.412055 2.265284 167 186 193
-0.136259 -0.578222 2.241429 0 80 128
-0.166551 -0.137842 2.316459 57 92 70
-0.167533 -0.064617 2.331855 156 84 60
-0.151002 0.034914 2.364963 10 40 76
-0.133400 0.020493 2.371645 128 125 156
-0.108478 -0.302712 2.306397 67 100 133
-0.010501 -0.239174 2.191564 203 208 201
0.015706 -0.513293 2.082557 199 209 244
0.015706 -0.513293 2.082557 199 209 244
0.036693 -0.133756 2.151864 216 217 212
0.054575 -0.226707 2.103432 154 147 118
0.076210 0.111781 2.165775 186 195 228
0.088690 -0.008373 2.114220 42 56 91
0.091945 -0.273108 2.037420 198 198 172
0.094150 -0.221658 2.049159 203 206 177
0.115969 -0.237411 2.013790 211 206 177
0.135420 0.010111 2.053037 61 68 112
0.141968 -0.115948 2.006917 211 213 208
0.147822 -0.452888 1.909111 204 217 249
0.149023 -0.258776 1.958789 52 59 43
0.149023 -0.258776 1.958789 52 59 43
0.154729 -0.103293 1.995090 209 211 208
0.156652 0.028848 2.027103 196 175 172
0.156652 0.028848 2.027103 196 175 172
0.156994 -0.472238 1.890671 214 223 252
0.156994 -0.472238 1.890671 214 223 252
0.162728 -0.194046 1.956653 31 34 23
0.162134 -0.461919 1.886295 207 211 248
0.195255 -0.636867 1.794738 195 194 208
0.233608 -0.301385 1.823729 12 21 4
0.233608 -0.301385 1.823729 12 21 4
0.236472 -0.184634 1.852326 216 211 189
-1.013919 -0.135323 2.069475 225 229 240
-0.932592 -0.224300 2.056133 218 223 229
-0.932592 -0.224300 2.056133 218 223 229
-0.885884 -0.387482 2.030883 217 220 225
-0.871763 -0.397127 2.027946 224 225 230
-0.792262 -0.433776 2.017499 181 184 189
-0.792262 -0.433776 2.017499 181 184 189
-0.791768 -0.388236 2.023924 229 227 232
-0.749911 -0.383869 2.022029 172 175 180
-0.749911 -0.383869 2.022029 172 175 180
-0.719501 -0.373945 2.020579 162 165 170
-0.531776 -0.004278 2.186055 34 55 84
-0.526223 0.006602 2.193523 87 112 152
-0.526223 0.006602 2.193523 87 112 152
-0.468864 0.031824 2.212790 72 54 54
-0.410193 -0.230377 2.190844 93 61 46
-0.390933 0.022669 2.243528 53 100 144
-0.358462 -0.162121 2.223300 65 22 16
-0.346943 -0.007649 2.256498 28 88 140
-0.272246 -0.205173 2.251639 149 132 106
-0.268718 -0.193251 2.254689 67 60 54
-0.219797 -0.445519 2.229321 26 118 169
-0.206926 -0.020445 2.322873 42 53 45
-0.162716 -0.419706 2.259062 188 190 205
-0.175247 -0.106749 2.318644 49 29 20
-0.178364 -0.045455 2.330873 74 58 33
-0.127510 -0.415685 2.275397 183 185 200
0.052950 -0.582234 2.041382 191 198 214
0.050604 -0.272769 2.099278 170 163 134
0.076071 -0.529889 2.012677 36 84 146
0.085466 -0.248872 2.054728 211 207 178
0.147777 -0.186178 1.979867 29 37 26
0.151813 0.023358 2.027381 47 66 106
0.165755 -0.062764 1.987510 204 197 168
0.171449 -0.225218 1.934267 202 199 166
0.175132 -0.570304 1.839186 206 206 216
0.175132 -0.570304 1.839186 206 206 216
0.188315 -0.250332 1.907940 199 199 165
0.213946 -0.309744 1.851576 40 44 30
0.219533 -0.223380 1.865968 203 198 169
0.240277 -0.199905 1.841729 29 37 22
0.242588 -0.348068 1.797730 54 75 118
0.525800 0.211139 1.420631 201 174 181
-1.015500 -0.143321 2.069559 221 225 234
-0.842262 -0.382839 2.028819 135 138 143
-0.849686 -0.144299 2.058656 216 220 229
-0.776776 -0.373506 2.025000 169 174 178
-0.762842 -0.383570 2.023056 155 158 163
-0.747618 -0.373665 2.021972 148 151 156
-0.733998 -0.383591 2.019857 141 144 149
-0.719794 -0.383851 2.019099 175 178 183
-0.743165 -0.047341 2.057986 192 195 204
-0.526261 0.006564 2.193695 87 112 152
-0.526261 0.006564 2.193695 87 112 152
-0.495110 -0.135202 2.177276 194 75 41
-0.461786 -0.261217 2.165989 15 121 169
-0.353580 -0.398721 2.184322 183 192 201
-0.353580 -0.398721 2.184322 183 192 201
-0.369163 -0.248930 2.201713 94 114 138
-0.367062 0.009296 2.249940 28 59 79
-0.332598 -0.021604 2.261077 137 146 151
-0.248255 -0.033246 2.298420 47 64 48
-0.200427 -0.392950 2.246597 177 184 190
-0.170761 -0.401725 2.258850 10 114 165
-0.191417 -0.120195 2.306629 190 154 92
-0.178580 -0.054779 2.328181 170 83 40
-0.111468 -0.371049 2.290936 164 170 182
0.050618 -0.272894 2.099684 170 163 134
0.081416 0.001397 2.126798 33 73 132
0.081416 0.001397 2.126798 33 73 132
0.098480 -0.584950 1.946056 221 213 224
0.242574 -0.348034 1.797624 54 75 118
-0.893065 -0.387192 2.030670 217 220 225
-0.893065 -0.387192 2.030670 217 220 225
-0.864579 -0.397656 2.028448 223 224 229
-0.864357 -0.388298 2.029259 222 221 227
-0.843463 -0.136278 2.059550 161 165 174
-0.843463 -0.136278 2.059550 161 165 174
-0.755752 -0.388598 2.021146 217 220 225
-0.755812 -0.378817 2.021572 218 221 226
-0.741432 -0.378520 2.021019 221 224 229
-0.727019 -0.378573 2.019251 220 223 228
-0.528792 -0.013963 2.188060 54 77 109
-0.514174 -0.117006 2.174840 51 36 29
-0.499481 -0.071409 2.186373 66 87 116
-0.484108 -0.060600 2.194646 60 64 75
-0.449128 0.004662 2.215406 125 78 48
-0.449128 0.004662 2.215406 125 78 48
-0.413170 -0.184364 2.197888 184 109 51
-0.380788 -0.446508 2.165556 188 187 193
-0.380788 -0.446508 2.165556 188 187 193
-0.407167 0.002452 2.231786 34 100 160
-0.367177 -0.239424 2.205069 107 123 149
-0.365293 -0.102343 2.229936 71 38 29
-0.288179 -0.004807 2.283828 113 126 135
-0.255114 -0.218863 2.256573 109 92 76
-0.191175 -0.385734 2.251098 17 121 176
-0.191175 -0.385734 2.251098 17 121 176
-0.138126 -0.032744 2.356971 44 36 34
-0.009225 -0.289697 2.179137 203 187 154
0.015955 0.088735 2.244905 54 84 144
0.040351 -0.221937 2.124994 120 121 115
0.050384 -0.684069 1.988551 178 180 192
0.070001 -0.249833 2.078820 163 151 111
0.070001 -0.249833 2.078820 163 151 111
0.078844 -0.239351 2.059767 99 101 87
-0.894010 -0.415669 2.026464 224 225 230
-0.894010 -0.415669 2.026464 224 225 230
-0.926902 -0.135921 2.066054 97 106 113
-0.865280 -0.415746 2.025450 224 227 236
-0.774204 -0.317160 2.032524 141 166 196
-0.774204 -0.317160 2.032524 141 166 196
-0.512321 -0.048481 2.185968 43 58 79
-0.485913 -0.009798 2.199680 46 51 57
-0.463839 -0.085234 2.198442 101 42 34
0.051047 0.100178 2.198026 146 159 194
0.051047 0.100178 2.198026 146 159 194
-1.255481 0.179561 2.122323 223 109 55
-1.100520 -0.346926 2.045691 225 226 231
-1.095846 0.047203 2.087500 192 193 197
-0.847290 -0.045537 2.067614 211 214 223
-0.771596 -0.339173 2.029173 169 166 177
-0.771596 -0.339173 2.029173 169 166 177
-0.528005 -0.123587 2.172166 57 42 39
0.018728 -0.229181 2.152612 83 91 76
0.094004 -0.510911 1.961453 57 96 161
-0.336897 0.052145 2.265457 158 165 183
-0.336897 0.052145 2.265457 158 165 183
-0.391595 -0.255236 2.192697 154 164 166
-0.377252 -0.065837 2.230254 54 38 38
-0.265699 -0.321597 2.236920 67 113 137
-0.210505 -0.331835 2.259328 153 168 187
-0.147128 -0.431197 2.261463 20 120 172
-0.166605 -0.052568 2.336776 100 69 40
0.192349 -0.212936 1.902405 197 198 167
-0.307715 -0.409840 2.198473 18 128 179
-0.292612 -0.141692 2.252913 172 172 182
0.000000 0.000000 0.000000 255 0 0
-0.988677 0.048151 -0.142126 255 0 0
