ply
format ascii 1.0
element vertex 1218
property float x
property float y
property float z
property uchar diffuse_red
property uchar diffuse_green
property uchar diffuse_blue
end_header
-0.662365 0.130684 1.494615 94 69 62
-0.657919 0.183492 1.509411 116 98 74
-0.599064 0.333159 1.570957 152 94 57
-0.591310 -0.061739 1.473987 200 136 92
-0.590180 -0.145904 1.450991 78 104 117
-0.584451 0.188325 1.537577 106 51 20
-0.577116 0.340657 1.582526 155 106 73
-0.571234 0.047974 1.509736 105 48 21
-0.564598 0.034753 1.508614 223 168 104
-0.558016 0.355728 1.593143 174 115 73
-0.560967 0.063207 1.517196 216 199 169
-0.560437 0.165409 1.539606 168 114 78
-0.560437 0.165409 1.539606 168 114 78
-0.553045 0.312079 1.584643 154 101 61
-0.558956 -0.283969 1.417719 174 113 58
-0.537878 0.279457 1.581608 178 114 70
-0.529268 0.402740 1.615278 107 57 30
-0.536537 0.099161 1.533259 84 53 32
-0.531281 0.147205 1.547030 163 126 97
-0.531281 0.147205 1.547030 163 126 97
-0.516693 0.396285 1.619176 136 112 84
-0.517292 0.311209 1.597726 103 52 21
-0.516266 0.262111 1.585788 133 86 56
-0.513941 0.080393 1.538153 155 111 82
-0.504750 0.248033 1.585433 117 68 36
-0.505325 0.114380 1.549318 194 123 79
-0.494998 0.270858 1.593976 153 83 34
-0.498246 0.119564 1.553238 195 143 96
-0.498246 0.119564 1.553238 195 143 96
-0.485763 -0.020922 1.518504 119 56 21
-0.478654 0.125646 1.562095 222 195 165
-0.478654 0.125646 1.562095 222 195 165
-0.474333 0.225965 1.589650 67 37 27
-0.468375 0.221546 1.591393 223 195 158
-0.470896 0.051463 1.545328 194 127 85
-0.463511 0.202276 1.588030 207 164 129
-0.467377 0.035709 1.541283 56 23 4
-0.463234 0.123804 1.567000 93 39 13
-0.461353 -0.042778 1.518306 150 106 81
-0.449743 0.074822 1.558981 80 49 28
-0.444557 0.110217 1.569299 152 101 74
-0.437801 0.232973 1.606620 148 92 55
-0.450541 -0.065091 1.514350 220 193 164
-0.444202 0.031313 1.546391 106 52 28
-0.442356 0.033049 1.548175 212 164 116
-0.421128 0.376296 1.649882 190 138 91
-0.432562 0.102735 1.572285 234 217 191
-0.431662 0.114010 1.575271 94 54 18
-0.432584 0.043640 1.553897 224 155 98
-0.425186 0.112126 1.577048 203 131 73
-0.416899 0.004219 1.545546 210 153 100
-0.409742 0.043027 1.559963 226 191 133
-0.409742 0.043027 1.559963 226 191 133
-0.404380 0.100535 1.579128 191 124 81
-0.403227 0.121074 1.585899 129 60 18
-0.390648 0.171038 1.604041 206 189 146
-0.384271 0.206602 1.616028 196 134 87
-0.386488 0.108611 1.586444 214 198 162
-0.387766 0.082109 1.578242 162 107 76
-0.387602 0.063709 1.572067 123 70 38
-0.387602 0.063709 1.572067 123 70 38
-0.386618 0.011952 1.555526 75 32 15
-0.384919 0.027193 1.561411 203 154 114
-0.384919 0.027193 1.561411 203 154 114
-0.376340 0.094789 1.584853 161 102 62
-0.369436 0.183328 1.613418 84 47 21
-0.374356 0.077238 1.580009 207 161 112
-0.374356 0.077238 1.580009 207 161 112
-0.368907 0.145351 1.602969 100 58 33
-0.380520 -0.044598 1.538998 181 135 99
-0.361247 0.181082 1.614795 181 125 88
-0.362296 0.159699 1.608399 177 115 76
-0.367671 0.050461 1.572637 192 134 96
-0.380055 -0.169190 1.497201 87 115 129
-0.343521 0.249943 1.640233 181 115 63
-0.362912 -0.018436 1.551354 186 136 99
-0.359458 0.011262 1.562361 110 71 54
-0.362112 -0.055085 1.540682 206 135 83
-0.361738 -0.081620 1.531520 146 86 50
-0.356127 -0.020979 1.552685 229 217 179
-0.339459 0.162236 1.615108 111 58 26
-0.344720 0.065107 1.584161 148 88 52
-0.346814 -0.034331 1.550377 154 92 53
-0.344070 -0.029673 1.552877 142 84 46
-0.343643 -0.073301 1.538540 169 115 81
-0.325274 0.088598 1.596972 133 79 43
-0.328728 0.027400 1.576141 186 138 100
-0.325309 0.044143 1.582048 101 47 19
-0.325309 0.044143 1.582048 101 47 19
-0.312029 0.094665 1.601803 217 157 107
-0.307819 0.136382 1.616688 208 151 108
-0.298415 0.151347 1.623906 118 64 28
-0.319435 -0.097903 1.537003 228 220 201
-0.291046 0.187684 1.635935 196 135 88
-0.296379 0.096892 1.608132 116 60 25
-0.342461 -0.331223 1.450697 79 52 31
-0.285484 0.192295 1.640207 162 103 61
-0.307770 -0.041590 1.558381 172 114 77
-0.291743 0.083154 1.604768 225 217 196
-0.291743 0.083154 1.604768 225 217 196
-0.285586 0.128625 1.620340 137 77 40
-0.281357 0.157835 1.631259 99 55 30
-0.299478 -0.019079 1.568615 108 54 30
-0.297928 -0.033350 1.564321 215 154 110
-0.283319 0.080624 1.606497 94 61 42
-0.293632 -0.029937 1.566846 172 119 87
-0.277649 0.118413 1.619765 243 198 139
-0.278214 0.075032 1.605232 143 81 42
-0.283611 -0.001709 1.579500 190 127 83
-0.259975 0.229144 1.658912 136 81 42
-0.263913 0.178812 1.642741 152 84 39
-0.291769 -0.080528 1.550568 123 62 31
-0.285810 -0.072048 1.555684 133 70 37
-0.279500 -0.031543 1.570631 169 115 79
-0.276492 -0.002044 1.580875 137 77 43
-0.278781 -0.028556 1.571103 70 24 1
-0.266868 0.057418 1.603382 200 136 88
-0.277516 -0.040038 1.568110 187 133 95
-0.274645 -0.013712 1.577611 90 50 25
-0.274775 -0.032081 1.572620 173 110 77
-0.281185 -0.095489 1.548468 224 161 117
-0.263329 0.060437 1.604943 195 137 97
-0.276073 -0.056340 1.563032 117 66 37
-0.276073 -0.056340 1.563032 117 66 37
-0.276265 -0.073750 1.557597 122 72 45
-0.272468 -0.065317 1.560670 129 75 41
-0.260561 0.024814 1.595099 109 52 23
-0.263643 -0.020380 1.578647 91 43 21
-0.261975 -0.004995 1.583323 137 74 41
-0.264467 -0.039108 1.572329 168 144 132
-0.248959 0.098503 1.621585 129 69 32
-0.227486 0.304149 1.691587 109 55 29
-0.261029 -0.022105 1.578726 185 137 114
-0.256188 0.014289 1.592639 206 135 79
-0.248333 0.070696 1.613019 94 49 18
-0.263594 -0.070079 1.562178 100 56 31
-0.233488 0.119685 1.632203 186 115 69
-0.223770 0.176321 1.652536 198 128 76
-0.237050 0.039942 1.606478 97 53 28
-0.234233 0.050364 1.609684 103 53 20
-0.245259 -0.047831 1.573790 221 225 226
-0.245259 -0.047831 1.573790 221 225 226
-0.234090 0.041430 1.606743 169 119 84
-0.224208 0.127903 1.637032 197 188 149
-0.224208 0.127903 1.637032 197 188 149
-0.241379 -0.033320 1.580159 234 233 239
-0.239964 -0.049258 1.575085 59 95 107
-0.218933 0.101520 1.629179 185 133 93
-0.218933 0.101520 1.629179 185 133 93
-0.214406 0.133061 1.640461 208 145 101
-0.214406 0.133061 1.640461 208 145 101
-0.211500 0.147563 1.646492 129 54 15
-0.236179 -0.055461 1.573334 63 95 108
-0.236179 -0.055461 1.573334 63 95 108
-0.238138 -0.081838 1.564526 94 58 46
-0.217944 0.083674 1.623752 199 138 93
-0.232967 -0.056590 1.574012 218 223 227
-0.221829 0.001959 1.596125 239 240 244
-0.192668 0.159443 1.654794 132 69 36
-0.199389 0.083720 1.629140 207 146 99
-0.187035 0.184084 1.664228 160 106 70
-0.204792 0.032283 1.610190 93 42 21
-0.196969 0.063692 1.622044 106 61 32
-0.173442 0.242298 1.686932 96 45 14
-0.173442 0.242298 1.686932 96 45 14
-0.171233 0.262879 1.693751 191 128 77
-0.211316 -0.071889 1.573141 65 101 115
-0.211316 -0.071889 1.573141 65 101 115
-0.193730 0.067704 1.623271 104 68 42
-0.187967 0.065765 1.624760 113 59 33
-0.190226 0.029985 1.612621 171 121 86
-0.195660 -0.015622 1.596419 54 90 104
-0.177267 0.130757 1.648702 109 53 20
-0.199774 -0.046547 1.584305 43 76 85
-0.173440 0.148413 1.656176 127 65 28
-0.172183 0.121249 1.647058 110 61 28
-0.166145 0.152125 1.659143 147 72 30
-0.190734 -0.047547 1.585601 49 74 79
-0.171036 0.098336 1.639194 198 130 81
-0.195193 -0.080316 1.573374 56 95 100
-0.200684 -0.141203 1.549772 12 8 9
-0.189494 -0.085574 1.572394 43 85 101
-0.157138 0.100780 1.643109 104 48 13
-0.152369 0.107242 1.646426 144 82 43
-0.150402 0.094882 1.643073 180 118 79
-0.136262 0.154757 1.666894 128 65 24
-0.135383 0.125603 1.656931 121 76 45
-0.154116 -0.008234 1.607329 234 240 236
-0.166270 -0.098166 1.572189 186 138 100
-0.140492 0.003129 1.614503 113 67 41
-0.113131 0.157645 1.672904 146 84 43
-0.112912 0.153696 1.672326 195 129 81
-0.128250 0.046097 1.632063 205 144 100
-0.151069 -0.118761 1.567954 31 12 5
-0.148321 -0.138492 1.561511 45 32 23
-0.139191 -0.099941 1.577973 187 135 98
-0.152064 -0.188670 1.541891 74 43 23
-0.092198 0.156890 1.679520 129 70 40
-0.124705 -0.043897 1.601016 160 123 97
-0.136029 -0.117798 1.571606 76 43 26
-0.109142 0.043206 1.635309 133 76 47
-0.169674 -0.348324 1.479538 211 169 131
-0.168968 -0.360598 1.475056 220 196 170
-0.132417 -0.154440 1.558910 56 27 13
-0.135403 -0.190651 1.545054 93 59 32
-0.135403 -0.190651 1.545054 93 59 32
-0.146758 -0.256719 1.518172 246 234 210
-0.146758 -0.256719 1.518172 246 234 210
-0.126356 -0.156113 1.560599 93 56 37
-0.117226 -0.119488 1.575596 200 153 111
-0.121237 -0.150425 1.563592 181 126 96
-0.134377 -0.228203 1.532119 226 179 133
-0.145484 -0.301649 1.501537 120 66 32
-0.136005 -0.266120 1.517115 242 231 199
-0.136005 -0.266120 1.517115 242 231 199
-0.122554 -0.269318 1.521297 79 43 27
0.095603 0.031933 1.500369 121 174 182
0.098279 -0.264517 1.452207 161 80 77
0.122972 0.195776 1.500892 169 86 78
0.125070 0.125812 1.486535 73 91 129
0.117828 -0.281357 1.429770 255 245 251
0.117828 -0.281357 1.429770 255 245 251
0.122008 -0.280381 1.424219 249 248 246
0.122008 -0.280381 1.424219 249 248 246
0.144052 0.281777 1.493297 67 102 156
0.132684 -0.238552 1.419518 242 243 248
0.132684 -0.238552 1.419518 242 243 248
0.133351 -0.263951 1.415641 248 242 246
0.138766 -0.019453 1.448431 203 232 240
0.139683 -0.115843 1.432055 217 226 231
0.141885 -0.262728 1.407947 242 240 243
0.149802 0.020000 1.443955 235 239 242
0.151450 -0.012286 1.436371 219 194 197
0.153628 0.055270 1.446107 113 173 184
0.159629 -0.143169 1.407316 199 212 220
0.168607 -0.272803 1.378391 255 248 247
0.168607 -0.272803 1.378391 255 248 247
0.177028 -0.262556 1.371903 225 225 227
0.184416 -0.161834 1.378656 214 227 235
0.193790 -0.188926 1.363395 202 212 221
0.200141 -0.129729 1.368077 218 231 239
0.208227 0.074237 1.393559 60 57 76
0.201013 -0.223763 1.351811 213 104 99
0.209614 0.046713 1.387041 114 176 191
0.210705 0.083030 1.392012 248 247 252
0.212800 0.081466 1.390265 56 57 87
0.215182 -0.233212 1.336068 240 235 241
0.232118 -0.217287 1.321004 232 235 240
0.232118 -0.217287 1.321004 232 235 240
0.244458 0.132709 1.366396 30 20 55
0.253867 0.100654 1.350960 206 228 241
0.259694 0.149115 1.353982 206 177 181
0.250107 -0.141765 1.315333 245 245 247
0.278305 0.083362 1.322872 38 51 83
0.296432 0.165733 1.321364 222 223 227
0.295566 0.113264 1.311500 93 115 162
0.297136 0.129923 1.312909 232 233 235
0.323166 -0.162386 1.243069 197 206 213
0.340913 0.121516 1.266913 71 123 181
0.361946 0.214677 1.261621 190 221 241
0.362692 0.161451 1.252300 180 213 230
0.378814 0.201855 1.242604 131 184 218
0.387718 0.148535 1.224701 103 158 214
0.406050 0.113525 1.199704 194 218 242
0.410461 0.053937 1.185219 126 175 215
0.416525 0.030412 1.174709 141 190 222
0.430504 0.095338 1.172870 181 215 240
0.430504 0.095338 1.172870 181 215 240
0.430614 0.089317 1.171612 147 191 228
0.430614 0.089317 1.171612 147 191 228
0.463432 0.039030 1.130466 148 180 201
0.479060 0.127446 1.130394 163 183 208
0.511323 0.081258 1.091688 174 199 219
0.509340 0.016856 1.083036 166 185 202
0.510519 0.046004 1.086160 182 203 222
-0.669038 0.044706 1.470671 169 110 76
-0.661812 0.000144 1.462608 153 134 104
-0.656184 -0.099398 1.441031 178 102 53
-0.651732 -0.205453 1.414322 106 50 15
-0.649051 0.147023 1.504498 209 140 85
-0.646745 0.151397 1.505894 196 123 72
-0.645814 0.171040 1.510750 191 144 98
-0.641338 0.300072 1.545038 110 50 14
-0.640554 -0.066335 1.454722 81 31 8
-0.638595 0.008601 1.473944 177 160 134
-0.630743 0.075543 1.494207 204 133 91
-0.627163 0.037705 1.487010 201 129 71
-0.622633 0.076713 1.497280 193 116 64
-0.617750 0.405974 1.580071 197 168 126
-0.614968 0.318860 1.561286 107 54 20
-0.612089 0.280363 1.552901 72 42 14
-0.614904 -0.056493 1.466707 206 135 83
-0.611661 0.182132 1.525927 176 100 48
-0.610393 0.021236 1.488349 221 214 188
-0.608380 0.101225 1.507763 170 112 74
-0.599442 0.299568 1.563378 113 54 14
-0.606845 -0.240671 1.418273 211 208 203
-0.606845 -0.240671 1.418273 211 208 203
-0.598743 0.396275 1.585226 109 51 13
-0.602539 0.005292 1.486754 65 47 35
-0.600642 0.155649 1.522468 108 49 5
-0.600642 0.155649 1.522468 108 49 5
-0.595389 0.408789 1.589338 205 186 154
-0.595341 0.246040 1.550408 194 124 73
-0.596137 0.125492 1.517340 207 131 81
-0.587381 0.374968 1.585025 172 110 69
-0.586768 0.417972 1.594549 113 63 26
-0.588077 0.189228 1.536708 81 45 23
-0.587394 0.217940 1.545120 183 113 64
-0.584638 0.259372 1.559132 121 49 0
-0.584278 0.243908 1.554109 109 53 18
-0.580728 0.386646 1.590998 84 40 15
-0.583646 0.146728 1.526938 183 135 97
-0.591734 -0.301996 1.403151 189 157 118
-0.589555 -0.278572 1.411273 214 182 159
-0.580841 0.161936 1.531553 216 147 88
-0.579014 0.040780 1.505138 235 213 190
-0.578352 0.068730 1.512124 80 65 46
-0.574674 0.410051 1.596171 142 78 34
-0.572121 0.367304 1.589967 161 102 60
-0.574412 0.138924 1.527485 74 41 22
-0.573656 0.048262 1.508930 202 146 109
-0.582329 -0.285079 1.411262 171 107 69
-0.574257 -0.006180 1.494751 205 165 129
-0.573487 0.008487 1.499465 180 127 95
-0.573725 -0.017441 1.491012 176 122 88
-0.571205 0.116361 1.524048 194 129 89
-0.566739 0.209725 1.550824 177 114 71
-0.566739 0.209725 1.550824 177 114 71
-0.578553 -0.303171 1.406320 175 137 98
-0.577057 -0.252010 1.422285 15 15 17
-0.567998 0.112245 1.524422 77 27 4
-0.576799 -0.280109 1.414254 222 213 182
-0.565899 0.047367 1.511543 86 48 27
-0.559050 0.156585 1.538502 214 193 176
-0.558887 0.012874 1.504725 72 54 44
-0.552362 0.170263 1.544641 222 210 184
-0.552059 0.147650 1.539029 221 199 158
-0.552059 0.147650 1.539029 221 199 158
-0.550989 0.049549 1.517233 211 163 114
-0.547062 0.210752 1.558089 175 113 66
-0.560634 -0.285931 1.416379 195 134 87
-0.545325 0.104441 1.531402 181 127 89
-0.544334 0.110675 1.532466 107 56 29
-0.536446 0.073489 1.527676 140 100 74
-0.528816 0.366896 1.607396 97 79 57
-0.525373 0.391341 1.613920 66 32 7
-0.516800 0.165533 1.557521 167 124 92
-0.520215 0.005447 1.515897 183 124 82
-0.512036 0.165345 1.559167 84 59 55
-0.511390 0.006475 1.518674 101 54 36
-0.509114 0.040441 1.528704 65 42 28
-0.506276 0.133292 1.553360 73 56 48
-0.504990 0.160836 1.560839 231 224 205
-0.500640 0.178250 1.566874 193 136 91
-0.504929 0.004649 1.520672 232 215 208
-0.501662 0.113784 1.550674 92 50 34
-0.496844 0.204773 1.575295 107 53 25
-0.498219 0.074166 1.541229 80 67 50
-0.496420 0.071792 1.542134 220 220 186
-0.496420 0.071792 1.542134 220 220 186
-0.485736 0.261085 1.595999 193 127 75
-0.485736 0.261085 1.595999 193 127 75
-0.493182 -0.074563 1.499652 106 77 59
-0.488984 -0.016987 1.518920 108 46 21
-0.476474 0.104906 1.557996 86 35 6
-0.476474 0.104906 1.557996 86 35 6
-0.476883 0.042134 1.539994 203 141 92
-0.474437 0.073758 1.550680 91 57 29
-0.473821 0.084190 1.553272 103 58 35
-0.468275 0.215220 1.590252 186 132 85
-0.472548 0.076214 1.551044 224 208 172
-0.463289 0.211407 1.590520 179 122 79
-0.463289 0.211407 1.590520 179 122 79
-0.466709 0.084374 1.555813 97 60 31
-0.461557 0.120635 1.566760 199 131 82
-0.465894 0.007549 1.533279 122 53 20
-0.459792 0.052296 1.549274 82 48 23
-0.456604 0.085593 1.558906 197 136 92
-0.454688 0.081170 1.558719 189 124 70
-0.459812 -0.033367 1.521353 202 134 85
-0.451009 0.104675 1.566462 195 187 168
-0.449877 0.057506 1.553244 199 137 90
-0.444128 0.118879 1.572704 57 28 10
-0.436657 0.238602 1.607311 225 211 184
-0.447028 -0.009155 1.534905 186 123 69
-0.436018 -0.001515 1.538957 91 49 27
-0.432974 0.035639 1.551558 44 18 1
-0.423876 0.088835 1.570543 204 137 85
-0.411749 0.285381 1.628906 183 125 79
-0.425676 0.019629 1.548224 195 127 82
-0.418284 0.117917 1.580846 194 132 83
-0.418284 0.117917 1.580846 194 132 83
-0.423734 0.012133 1.546327 107 65 40
-0.416966 0.087648 1.572578 206 139 86
-0.408138 0.154269 1.594190 194 143 100
-0.408138 0.154269 1.594190 194 143 100
-0.403523 0.160249 1.596469 165 111 73
-0.403923 0.090406 1.576264 126 68 31
-0.401439 0.124067 1.586774 206 135 83
-0.396700 0.165953 1.600534 86 48 27
-0.400301 0.109713 1.583043 202 139 95
-0.396223 0.159729 1.599512 211 145 95
-0.386846 0.324429 1.647711 118 62 27
-0.408700 -0.027412 1.537602 68 43 21
-0.411301 -0.074483 1.521424 193 130 87
-0.393763 0.162202 1.600357 155 87 42
-0.392759 0.173515 1.603129 62 41 24
-0.397161 0.042303 1.562576 106 49 20
-0.396082 0.045273 1.564294 210 151 95
-0.394385 -0.022710 1.542725 171 121 88
-0.375316 0.228940 1.624760 84 38 12
-0.386743 0.008803 1.554893 172 116 83
-0.379224 0.059217 1.572284 178 129 89
-0.372365 0.099324 1.587567 98 45 14
-0.372031 0.102761 1.588794 204 133 87
-0.374073 0.051518 1.571452 108 53 22
-0.374073 0.051518 1.571452 108 53 22
-0.376273 -0.006931 1.552824 193 135 97
-0.367604 0.074935 1.581048 166 127 96
-0.372610 -0.005211 1.553740 118 67 38
-0.371251 0.008456 1.558190 197 138 104
-0.361580 0.108194 1.593066 101 59 35
-0.360310 0.064222 1.578807 175 123 84
-0.369040 -0.074008 1.532446 91 50 32
-0.358167 0.049093 1.575900 179 120 78
-0.347479 0.162274 1.613433 123 60 25
-0.342038 0.154448 1.612308 186 125 80
-0.341318 0.175159 1.618458 77 46 26
-0.342431 0.157751 1.612790 141 79 42
-0.346728 0.086225 1.589198 115 71 42
-0.357326 -0.072206 1.534186 105 74 43
-0.345731 0.047073 1.577004 183 124 84
-0.345731 0.047073 1.577004 183 124 84
-0.335056 0.153598 1.613891 193 136 93
-0.351095 -0.038221 1.547946 87 42 21
-0.349016 -0.067694 1.540235 139 83 48
-0.308467 0.239914 1.647494 190 128 81
-0.308467 0.239914 1.647494 190 128 81
-0.313610 0.166578 1.623583 201 131 80
-0.313610 0.166578 1.623583 201 131 80
-0.328919 -0.008542 1.563991 196 136 100
-0.328919 -0.008542 1.563991 196 136 100
-0.324126 -0.001695 1.567782 77 40 24
-0.327022 -0.045649 1.552530 179 130 100
-0.312811 0.043222 1.585392 124 70 36
-0.312811 0.043222 1.585392 124 70 36
-0.307021 0.098664 1.604716 206 138 89
-0.303515 0.094336 1.604554 216 150 98
-0.310714 -0.007254 1.569435 180 121 81
-0.307926 -0.013516 1.568482 235 189 139
-0.288624 0.161105 1.630156 185 145 110
-0.288624 0.161105 1.630156 185 145 110
-0.326872 -0.207436 1.497969 42 36 36
-0.303630 -0.012653 1.570476 91 56 37
-0.293544 0.081015 1.604676 55 35 24
-0.306373 -0.050968 1.556491 209 165 130
-0.280781 0.133336 1.623838 125 71 37
-0.292187 0.015925 1.581873 185 126 86
-0.288713 0.045005 1.592870 65 33 12
-0.288713 0.045005 1.592870 65 33 12
-0.296360 -0.045352 1.561323 159 118 88
-0.273854 0.109025 1.618328 201 135 85
-0.284088 0.002066 1.579925 86 44 20
-0.284088 0.002066 1.579925 86 44 20
-0.283555 -0.001728 1.579183 190 127 83
-0.281602 0.014023 1.585156 116 62 36
-0.269947 0.108647 1.619601 204 137 82
-0.287630 -0.055135 1.560808 85 48 29
-0.279570 0.017914 1.586449 198 135 92
-0.313674 -0.345683 1.453449 105 72 53
-0.256231 0.069930 1.610351 210 147 103
-0.239824 0.209225 1.658912 107 53 17
-0.235328 0.211132 1.661016 161 107 69
-0.235328 0.211132 1.661016 161 107 69
-0.262783 -0.048964 1.569318 238 226 204
-0.262783 -0.048964 1.569318 238 226 204
-0.245944 0.096774 1.621639 205 139 87
-0.262764 -0.063281 1.564467 200 144 97
-0.230793 0.141867 1.639908 185 127 79
-0.223189 0.194849 1.659075 200 130 78
-0.233316 0.091643 1.622734 101 44 14
-0.238485 0.032083 1.602047 100 55 26
-0.282975 -0.331160 1.465336 197 132 74
-0.223070 0.130828 1.638505 64 29 9
-0.261473 -0.187031 1.521451 92 126 136
-0.261473 -0.187031 1.521451 92 126 136
-0.245385 -0.086437 1.560808 63 30 15
-0.234464 -0.006680 1.591105 64 100 116
-0.212816 0.144330 1.644089 194 130 84
-0.203994 0.142380 1.646618 99 60 29
-0.182702 0.274596 1.693032 186 119 64
-0.263122 -0.350182 1.462614 171 95 35
-0.195673 0.143102 1.649066 128 75 43
-0.191869 0.168318 1.657818 207 136 82
-0.236484 -0.189606 1.525506 86 127 133
-0.199349 0.083691 1.628810 207 146 99
-0.201254 0.049440 1.616569 212 151 94
-0.233428 -0.187635 1.526802 3 11 22
-0.201242 0.049435 1.616474 212 151 94
-0.214572 -0.078529 1.570203 228 229 231
-0.195146 0.070601 1.624175 201 135 87
-0.186167 0.144332 1.650251 118 59 25
-0.186167 0.144332 1.650251 118 59 25
-0.189461 0.110447 1.638953 207 150 107
-0.190944 0.096503 1.634056 127 69 31
-0.178936 0.169552 1.660683 207 137 86
-0.190315 0.008409 1.605213 248 247 252
-0.190315 0.008409 1.605213 248 247 252
-0.199331 -0.075669 1.574011 55 95 107
-0.179352 0.067862 1.626700 96 49 21
-0.170672 0.124382 1.648384 198 132 82
-0.177861 0.027238 1.614694 77 52 47
-0.164143 0.123742 1.649574 193 130 77
-0.188947 -0.110066 1.563660 195 134 80
-0.168097 0.028810 1.616727 108 51 31
-0.140795 0.143533 1.661290 195 125 73
-0.184897 -0.187104 1.536841 11 18 28
-0.123328 0.194848 1.683362 85 40 21
-0.109379 0.303701 1.720456 40 21 6
-0.128352 0.129481 1.659718 113 57 30
-0.123120 0.109972 1.654119 197 134 83
-0.191700 -0.331087 1.482434 202 127 72
-0.111137 0.163610 1.675966 106 50 25
-0.150282 -0.113344 1.570035 229 222 193
-0.108755 0.125392 1.663370 93 51 29
-0.182990 -0.352717 1.474850 104 60 31
-0.153601 -0.212249 1.532949 90 55 36
-0.177719 -0.367017 1.471605 202 154 116
-0.169456 -0.319901 1.490520 33 23 21
-0.169456 -0.319901 1.490520 33 23 21
-0.155889 -0.241251 1.521362 141 74 31
-0.126813 -0.098832 1.581042 119 62 32
-0.141235 -0.190523 1.544631 99 68 47
-0.164639 -0.328709 1.487908 255 252 226
-0.138489 -0.198142 1.541235 198 124 75
-0.140671 -0.262150 1.517642 249 233 217
-0.133330 -0.219457 1.535015 225 176 118
-0.145597 -0.304521 1.501730 181 126 87
-0.158432 -0.368209 1.473598 155 109 75
-0.149827 -0.346476 1.483998 181 160 129
-0.123092 -0.213254 1.539422 215 148 95
-0.130500 -0.289797 1.510199 75 54 37
-0.125487 -0.302964 1.508442 100 52 29
0.067072 -0.330343 1.475431 233 231 232
0.079646 -0.057034 1.502871 224 232 245
0.083130 0.089874 1.522945 223 220 203
0.098417 -0.033102 1.489329 88 132 171
0.108421 -0.300267 1.435834 250 244 248
0.116937 -0.158161 1.449012 218 231 240
0.121433 -0.072901 1.457353 143 178 206
0.125649 0.074187 1.477754 244 243 241
0.122062 -0.191559 1.438357 231 231 241
0.130760 0.093558 1.474879 223 221 198
0.133751 -0.000476 1.456227 35 54 60
0.139577 -0.294737 1.404463 248 246 247
0.141539 -0.237326 1.411718 246 240 244
0.141539 -0.237326 1.411718 246 240 244
0.148954 0.047811 1.449244 234 238 241
0.148331 -0.151369 1.417615 207 220 229
0.148331 -0.151369 1.417615 207 220 229
0.161940 -0.024190 1.423812 224 209 212
0.157520 -0.288882 1.387220 255 253 254
0.167429 -0.219127 1.386632 204 211 219
0.175921 0.078507 1.426922 207 153 166
0.173206 -0.285464 1.371558 255 251 250
0.184703 -0.158805 1.378973 216 226 235
0.213043 -0.140458 1.353354 215 225 234
0.218959 -0.228033 1.332967 247 250 255
0.218959 -0.228033 1.332967 247 250 255
0.224148 -0.243080 1.326178 244 242 243
0.230057 -0.096115 1.342178 207 217 226
0.231929 -0.153722 1.332046 217 228 234
0.231929 -0.153722 1.332046 217 228 234
0.232605 -0.241515 1.316699 239 243 244
0.232605 -0.241515 1.316699 239 243 244
0.247872 0.101315 1.357027 228 233 237
0.248151 0.018515 1.343674 62 86 132
0.251863 -0.232647 1.299649 239 243 246
0.251863 -0.232647 1.299649 239 243 246
0.267497 0.182057 1.351471 59 50 71
0.269786 0.168912 1.346565 188 224 238
0.269786 0.168912 1.346565 188 224 238
0.261493 -0.148177 1.303122 238 238 238
0.277253 0.108692 1.328991 212 233 254
0.277119 0.074761 1.323482 165 204 219
0.297643 0.133089 1.312680 162 176 185
0.331310 0.125452 1.277723 88 139 156
0.341731 0.127239 1.266543 79 132 146
0.389639 0.142196 1.221549 99 150 195
0.389639 0.142196 1.221549 99 150 195
0.390353 0.096065 1.213071 130 184 222
0.394527 0.147278 1.218112 187 231 240
0.387314 -0.103408 1.183316 209 222 238
0.402500 0.120507 1.204751 210 182 194
0.402500 0.120507 1.204751 210 182 194
0.395283 -0.096512 1.176309 40 50 101
0.395004 -0.106259 1.174911 204 222 236
0.407978 0.147790 1.204643 116 169 203
0.414248 0.123662 1.192994 242 241 246
0.414248 0.123662 1.192994 242 241 246
0.443761 0.113534 1.166380 49 67 131
0.449654 0.040816 1.144416 195 222 243
0.453700 0.092388 1.149234 185 215 241
0.498402 -0.038129 1.084477 165 192 211
0.511097 -0.002920 1.076800 163 180 198
-0.685065 -0.147961 1.416237 227 177 118
-0.682846 -0.196398 1.404817 225 209 186
-0.681043 -0.202930 1.403724 189 134 95
-0.668347 -0.050595 1.446878 174 125 82
-0.659090 -0.098700 1.439320 175 99 49
-0.658514 -0.259318 1.397807 199 127 77
-0.655591 0.170168 1.506736 104 49 10
-0.651925 0.217614 1.519979 106 66 40
-0.647270 -0.271042 1.397525 226 211 182
-0.641315 0.296325 1.544612 174 111 67
-0.640856 -0.017471 1.465527 99 62 43
-0.639519 0.201934 1.520384 119 72 44
-0.635153 0.067460 1.490600 200 149 92
-0.631803 0.083715 1.495360 206 133 88
-0.629792 0.346291 1.560722 144 94 59
-0.633099 -0.273649 1.400867 207 141 80
-0.626127 0.295869 1.551160 99 48 21
-0.626114 0.295858 1.551128 99 48 21
-0.626835 -0.001847 1.475682 175 146 128
-0.623399 -0.039714 1.466262 181 104 52
-0.622258 -0.280649 1.401556 191 111 58
-0.617913 -0.008378 1.477215 193 182 152
-0.613682 0.201781 1.531007 104 50 16
-0.613682 0.201781 1.531007 104 50 16
-0.612453 0.019133 1.486863 33 15 3
-0.610634 0.077581 1.503261 55 41 32
-0.611042 -0.041384 1.471594 152 74 26
-0.606673 -0.297686 1.400990 218 152 94
-0.598573 0.123623 1.516081 91 42 10
-0.598573 0.123623 1.516081 91 42 10
-0.599234 -0.060594 1.471262 202 150 100
-0.596355 0.154572 1.522489 107 43 5
-0.585392 0.021162 1.497323 56 45 41
-0.585150 -0.023433 1.485826 135 87 64
-0.579026 0.002128 1.495279 223 190 145
-0.574103 0.239603 1.557053 167 110 67
-0.586274 -0.319199 1.399285 214 201 182
-0.575151 0.010930 1.498685 97 60 31
-0.581338 -0.288347 1.410589 121 69 56
-0.565821 0.316301 1.580789 116 76 50
-0.578922 -0.282483 1.412954 239 215 177
-0.569237 0.140747 1.530668 129 99 75
-0.568065 0.112275 1.524600 77 27 4
-0.568275 0.013854 1.501838 234 224 189
-0.568275 0.013854 1.501838 234 224 189
-0.561019 0.382360 1.597818 84 34 7
-0.567122 -0.002051 1.498030 202 134 89
-0.560333 0.314815 1.582460 143 90 56
-0.572099 -0.310345 1.405608 171 127 100
-0.559090 0.078079 1.521166 77 42 20
-0.559090 0.078079 1.521166 77 42 20
-0.566081 -0.292653 1.413256 181 120 76
-0.553657 0.059530 1.518871 201 135 87
-0.549687 0.184198 1.549214 229 209 182
-0.549687 0.184198 1.549214 229 209 182
-0.548159 0.200402 1.555457 90 41 9
-0.545184 0.265351 1.574920 238 219 189
-0.549259 0.081125 1.524470 77 45 20
-0.546151 0.119887 1.534563 110 63 37
-0.545926 0.061238 1.522249 205 134 88
-0.545926 0.061238 1.522249 205 134 88
-0.544907 0.162320 1.545130 222 201 170
-0.540572 0.195634 1.555308 99 52 26
-0.535056 0.328705 1.595485 173 115 69
-0.541328 -0.031878 1.498024 84 49 30
-0.537158 0.112194 1.537472 85 37 17
-0.517395 0.314756 1.599135 166 108 70
-0.520262 0.128569 1.546742 202 130 80
-0.520398 0.042353 1.525982 136 101 79
-0.520398 0.042353 1.525982 136 101 79
-0.518513 0.106509 1.542160 107 62 43
-0.514978 0.187812 1.563162 87 35 13
-0.530394 -0.285290 1.423944 94 80 67
-0.530021 -0.315489 1.414065 162 86 37
-0.509248 0.080632 1.538576 109 63 39
-0.508333 0.060619 1.534628 126 64 27
-0.495840 0.278675 1.596277 51 28 12
-0.501830 -0.012488 1.515800 205 133 83
-0.495908 0.127613 1.555637 206 139 86
-0.498906 -0.034066 1.511190 189 121 74
-0.493015 0.024023 1.530065 92 50 38
-0.480895 0.313789 1.611699 186 121 67
-0.486558 0.055250 1.540930 216 144 86
-0.485142 0.058325 1.542188 111 50 21
-0.481722 0.117120 1.557857 79 48 28
-0.473682 0.281324 1.605979 56 29 12
-0.479711 0.045339 1.540668 60 37 23
-0.475536 0.117266 1.561188 61 38 20
-0.474825 0.099077 1.556557 116 71 42
-0.463929 0.214518 1.591223 75 30 9
-0.471286 0.010603 1.532409 132 68 33
-0.457432 0.095852 1.561318 64 29 10
-0.453654 0.185579 1.586214 183 116 71
-0.455913 0.070953 1.555329 205 127 79
-0.455623 0.074666 1.556848 93 52 24
-0.454204 0.057005 1.551704 97 53 24
-0.461857 -0.069007 1.510080 95 48 30
-0.445528 0.155566 1.582443 163 104 70
-0.449289 0.067378 1.555956 195 125 74
-0.436949 0.250301 1.611655 70 56 47
-0.443968 0.083464 1.562654 181 127 81
-0.430475 0.395797 1.651125 229 204 174
-0.430903 0.238855 1.610390 208 194 168
-0.439730 0.055690 1.555967 80 44 22
-0.438598 0.007140 1.541172 55 38 31
-0.441274 -0.034272 1.526427 181 115 67
-0.435125 0.033330 1.550337 237 220 202
-0.411236 0.298584 1.633286 162 108 64
-0.411236 0.298584 1.633286 162 108 64
-0.415926 0.106394 1.577911 106 49 22
-0.425244 -0.056320 1.524290 101 53 33
-0.407025 0.223687 1.613719 74 38 16
-0.423796 -0.046760 1.524645 185 124 79
-0.419887 -0.037686 1.531551 107 52 22
-0.398871 0.297385 1.636927 174 116 70
-0.398871 0.297385 1.636927 174 116 70
-0.403004 0.137393 1.590729 189 127 78
-0.396064 0.235914 1.620794 89 51 28
-0.394982 0.109227 1.585006 207 144 93
-0.392278 0.089061 1.578924 200 133 78
-0.385972 0.075714 1.576148 193 142 97
-0.388598 0.012469 1.555490 81 42 25
-0.388598 0.012469 1.555490 81 42 25
-0.376650 0.037704 1.566238 115 82 63
-0.406847 -0.323868 1.439259 111 62 32
-0.382621 -0.073369 1.528996 230 180 119
-0.376976 -0.015650 1.549132 195 147 107
-0.372636 -0.001260 1.556335 171 117 81
-0.366486 0.010576 1.560354 103 65 46
-0.352611 0.151834 1.608688 115 66 34
-0.336851 0.122724 1.604902 136 76 42
-0.323839 0.160888 1.619403 203 141 92
-0.370258 -0.341303 1.440396 107 70 41
-0.335837 -0.041564 1.551476 163 119 90
-0.318732 0.085390 1.597919 64 36 15
-0.332654 -0.067795 1.543544 189 136 94
-0.315690 -0.023908 1.563042 96 59 40
-0.291345 0.184481 1.636470 73 46 29
-0.276416 0.225552 1.652981 183 126 83
-0.316245 -0.172384 1.512816 23 30 40
-0.316245 -0.172384 1.512816 23 30 40
-0.302620 -0.048486 1.557771 73 34 17
-0.285967 0.040839 1.592237 186 132 88
-0.277929 0.109497 1.617068 196 132 86
-0.291289 -0.035928 1.565693 208 147 93
-0.274328 0.098225 1.614932 207 135 77
-0.272135 0.093757 1.613861 125 71 35
-0.274853 0.016265 1.587573 104 63 41
-0.245488 0.210820 1.658587 201 135 83
-0.259800 0.050406 1.602832 192 135 92
-0.256683 0.040018 1.601061 198 131 78
-0.264351 -0.030633 1.575435 51 33 19
-0.238436 0.128638 1.633697 75 32 13
-0.237562 0.132631 1.635719 157 104 70
-0.220132 0.211097 1.664527 92 55 36
-0.220132 0.211097 1.664527 92 55 36
-0.207836 0.276333 1.689061 105 50 19
-0.207836 0.276333 1.689061 105 50 19
-0.261010 -0.182172 1.523111 86 124 137
-0.250405 -0.108094 1.552190 120 84 62
-0.244454 -0.057795 1.569979 62 106 119
-0.236596 -0.064183 1.569938 208 213 217
-0.236829 -0.097816 1.558468 59 27 14
-0.236267 -0.102285 1.557466 212 144 97
-0.208710 0.046624 1.613232 118 72 38
-0.207458 -0.087468 1.569552 64 103 120
-0.177907 0.138351 1.651998 102 54 31
-0.168124 0.147706 1.655920 196 130 82
-0.179521 0.049941 1.621395 95 50 31
-0.159517 0.166142 1.664929 73 44 30
-0.171947 0.000078 1.606949 68 111 130
-0.148749 0.129173 1.655278 123 64 32
-0.140283 0.031605 1.624431 211 145 93
-0.136436 0.064088 1.635696 148 79 40
-0.113106 0.167881 1.676640 198 136 87
-0.122769 0.069276 1.640959 132 78 44
-0.125280 0.001954 1.617174 120 76 51
-0.117159 0.032762 1.630767 208 138 86
-0.128835 -0.091603 1.582575 125 71 47
-0.156100 -0.252959 1.516882 106 74 51
-0.135502 -0.210856 1.537452 116 75 55
-0.142578 -0.310948 1.499342 228 165 111
0.090746 -0.162196 1.475177 201 211 220
0.109655 -0.207152 1.447859 235 236 240
0.118633 -0.191355 1.440647 211 103 93
0.141425 -0.139208 1.427261 210 220 229
0.141425 -0.139208 1.427261 210 220 229
0.155607 0.282800 1.481026 244 240 239
0.154900 0.095595 1.450672 236 240 241
0.158345 -0.134445 1.410047 209 219 228
0.158345 -0.134445 1.410047 209 219 228
0.168637 0.030128 1.426156 247 248 250
0.195862 -0.181519 1.364003 224 228 237
0.217675 -0.129041 1.350257 211 220 227
0.248772 0.110322 1.358232 221 225 237
0.261103 0.130730 1.349733 169 205 221
0.301272 0.100173 1.304895 155 192 210
0.317506 -0.186724 1.240257 203 212 221
0.329019 0.075748 1.272969 107 166 208
0.364265 0.228434 1.262230 177 206 220
0.372117 0.127037 1.235918 234 238 241
0.387566 -0.046659 1.190307 235 231 230
0.400659 0.193004 1.218839 242 244 243
0.400659 0.193004 1.218839 242 244 243
0.402445 0.120477 1.204585 210 182 194
0.402445 0.120477 1.204585 210 182 194
0.407434 0.083130 1.193462 117 179 218
0.420591 0.020510 1.170595 223 188 186
0.453713 0.109854 1.153106 134 178 207
0.490000 -0.007675 1.099335 188 200 214
0.490000 -0.007675 1.099335 188 200 214
0.494007 0.040114 1.100383 149 175 198
0.512411 0.005028 1.078408 163 181 201
0.512382 0.011700 1.076428 165 183 203
0.518141 0.006425 1.071017 168 186 206
0.520508 0.028345 1.073136 153 173 197
-0.675723 -0.210943 1.404474 230 209 190
-0.675925 -0.148632 1.419753 228 181 109
-0.673353 -0.264877 1.390543 80 35 16
-0.652217 0.016801 1.470865 72 33 16
-0.652449 -0.295778 1.386485 156 84 34
-0.649217 -0.168084 1.425430 90 39 18
-0.642983 0.233193 1.526765 71 61 49
-0.642983 0.233193 1.526765 71 61 49
-0.637055 0.297832 1.546819 70 24 0
-0.636308 0.089894 1.494946 89 46 12
-0.638555 -0.274341 1.399019 222 167 102
-0.633352 0.271486 1.542368 84 53 24
-0.634555 -0.011150 1.469748 113 85 63
-0.622139 0.172259 1.519777 70 44 19
-0.625073 -0.245269 1.411412 229 224 228
-0.621343 0.050601 1.491626 87 40 12
-0.621343 0.050601 1.491626 87 40 12
-0.618172 -0.233623 1.417155 120 122 119
-0.618172 -0.233623 1.417155 120 122 119
-0.612691 0.071443 1.499931 50 28 14
-0.611411 -0.052264 1.469393 192 121 75
-0.603577 0.049192 1.498141 119 62 32
-0.609432 -0.308820 1.396780 126 72 38
-0.596323 0.000667 1.488432 209 198 166
-0.590820 0.411937 1.592729 79 37 12
-0.593452 0.139386 1.521278 242 234 215
-0.600255 -0.298282 1.402569 224 182 134
-0.591557 0.142703 1.521809 56 29 12
-0.589991 0.091717 1.512310 72 34 13
-0.589991 0.091717 1.512310 72 34 13
-0.586315 0.052856 1.505144 48 27 10
-0.583100 0.067883 1.510128 82 65 47
-0.580312 0.241276 1.555154 101 51 24
-0.579998 0.144879 1.527538 163 124 95
-0.581509 -0.057812 1.478720 188 114 65
-0.574341 0.385467 1.593062 70 34 10
-0.581182 -0.304877 1.404420 98 73 53
-0.570328 0.088320 1.518831 172 109 65
-0.571612 -0.306288 1.406448 98 57 39
-0.561558 0.007265 1.503081 45 19 6
-0.559112 0.078095 1.521227 77 42 20
-0.559112 0.078095 1.521227 77 42 20
-0.545190 0.265339 1.574941 238 219 189
-0.544325 0.227948 1.563751 113 72 44
-0.543696 -0.009889 1.504016 82 26 1
-0.528467 0.206247 1.563077 67 45 24
-0.528731 0.134363 1.544962 199 128 74
-0.528731 0.134363 1.544962 199 128 74
-0.542706 -0.295293 1.416830 211 150 95
-0.535970 -0.317446 1.412515 130 60 26
-0.501477 0.381827 1.621206 100 50 23
-0.500162 -0.048754 1.505751 142 95 67
-0.477525 0.225526 1.587664 77 45 24
-0.466583 0.386163 1.634678 77 45 22
-0.475421 0.008362 1.530457 192 126 76
-0.470369 0.109314 1.561217 140 87 56
-0.444576 0.214828 1.597724 100 65 45
-0.453386 0.001694 1.535469 110 68 44
-0.449220 0.067337 1.555714 195 125 74
-0.438845 0.184263 1.591617 103 55 32
-0.438845 0.184263 1.591617 103 55 32
-0.441373 -0.034228 1.526777 181 115 67
-0.436309 -0.045466 1.525434 187 116 70
-0.424836 0.120791 1.579035 200 131 72
-0.429311 -0.005868 1.538737 236 223 206
-0.421209 0.104970 1.576027 195 122 67
-0.423474 0.039991 1.556031 200 144 93
-0.417427 0.126264 1.582594 207 131 79
-0.425995 -0.031628 1.532488 126 70 45
-0.411445 -0.024385 1.537707 228 217 187
-0.396452 0.155830 1.598714 121 70 41
-0.386306 0.234082 1.622782 70 45 23
-0.392351 0.089067 1.579217 200 133 78
-0.377588 0.289993 1.641251 91 42 12
-0.412873 -0.200483 1.479084 155 103 45
-0.366184 0.118493 1.595382 89 49 23
-0.364792 0.123244 1.596609 177 122 81
-0.372617 -0.001219 1.556260 171 117 81
-0.365064 -0.006748 1.555093 139 88 57
-0.337388 0.236268 1.637843 136 82 48
-0.354248 -0.050117 1.543357 173 99 52
-0.351198 -0.071572 1.536554 177 119 79
-0.318382 0.276330 1.655317 136 78 40
-0.347094 -0.086680 1.534136 205 143 94
-0.322572 0.128845 1.610633 81 46 26
-0.322572 0.128845 1.610633 81 46 26
-0.305762 0.227453 1.644520 188 121 76
-0.293886 0.144395 1.622298 190 129 82
-0.297931 0.085849 1.603731 165 153 139
-0.302270 0.023463 1.581426 84 42 20
-0.302270 0.023463 1.581426 84 42 20
-0.308012 -0.047514 1.558037 83 47 33
-0.308012 -0.047514 1.558037 83 47 33
-0.290940 -0.045677 1.563095 167 112 81
-0.279988 0.037472 1.592529 92 60 39
-0.279988 0.037472 1.592529 92 60 39
-0.276239 0.069311 1.603285 104 57 31
-0.278086 0.009560 1.585967 208 132 82
-0.240091 -0.001336 1.591323 66 110 123
-0.253118 -0.185117 1.524687 27 25 28
-0.177568 0.256019 1.691369 129 79 42
-0.199529 0.068501 1.622619 201 131 79
-0.188523 0.101996 1.636346 209 135 86
-0.188523 0.101996 1.636346 209 135 86
-0.180253 0.075310 1.630534 204 133 79
-0.180253 0.075310 1.630534 204 133 79
-0.171417 0.102064 1.641342 198 128 77
-0.171417 0.102064 1.641342 198 128 77
-0.179341 -0.031505 1.594625 195 203 206
-0.142742 0.051389 1.628836 180 121 77
-0.142742 0.051389 1.628836 180 121 77
-0.157287 -0.075836 1.582073 68 110 126
-0.155304 -0.092794 1.575338 199 126 81
-0.120267 0.105594 1.653259 113 66 36
-0.172872 -0.344107 1.480670 88 50 29
-0.127597 -0.140451 1.566042 245 237 226
-0.152030 -0.362940 1.478002 224 163 98
-0.127794 -0.298186 1.508004 213 146 91
0.119927 0.033504 1.477488 229 234 240
0.150304 0.092272 1.454701 241 242 246
0.167654 0.035854 1.427615 237 245 247
0.163368 -0.290916 1.380908 245 240 244
0.169877 -0.274233 1.377852 245 242 249
0.169877 -0.274233 1.377852 245 242 249
0.216733 0.023916 1.375175 235 236 241
0.216733 0.023916 1.375175 235 236 241
0.218458 -0.223629 1.335553 214 104 107
0.246281 0.144020 1.366171 26 23 34
0.246281 0.144020 1.366171 26 23 34
0.241408 -0.216979 1.311919 217 221 232
0.269994 -0.015163 1.315243 62 90 138
0.269994 -0.015163 1.315243 62 90 138
0.289171 -0.213654 1.264538 215 225 234
0.289171 -0.213654 1.264538 215 225 234
0.303955 0.107388 1.304842 87 138 195
0.391429 -0.100406 1.179005 208 220 234
0.391429 -0.100406 1.179005 208 220 234
0.468598 0.066229 1.130562 122 161 192
0.468598 0.066229 1.130562 122 161 192
0.475091 0.046766 1.117922 149 183 208
0.493789 0.031592 1.099391 162 187 207
0.495378 0.057679 1.102472 141 175 200
0.497176 0.031984 1.095935 165 190 210
0.500597 0.057840 1.096698 145 179 204
0.504846 0.086105 1.099324 143 174 202
0.510402 0.067572 1.089276 142 173 201
0.510402 0.067572 1.089276 142 173 201
0.512540 0.050440 1.082730 153 179 204
0.515407 0.059258 1.082361 142 174 197
0.515625 0.027219 1.077179 159 180 201
0.515625 0.027219 1.077179 159 180 201
-0.693589 -0.295684 1.374070 111 71 46
-0.663931 0.028033 1.468565 104 50 24
-0.661819 -0.102617 1.437107 189 115 70
-0.661880 -0.076442 1.443893 199 125 64
-0.661880 -0.076442 1.443893 199 125 64
-0.659450 -0.242058 1.402586 203 133 71
-0.652162 -0.025226 1.459637 209 140 83
-0.639928 0.149184 1.506478 200 127 74
-0.628097 0.011575 1.479093 72 46 29
-0.616225 0.082762 1.500602 238 226 210
-0.616225 0.082762 1.500602 238 226 210
-0.610937 -0.239027 1.417401 38 28 29
-0.608695 -0.287636 1.403449 206 131 76
-0.583211 0.140848 1.525406 77 44 25
-0.581808 0.183653 1.537959 182 110 60
-0.580111 0.207291 1.544908 173 109 63
-0.580111 0.207291 1.544908 173 109 63
-0.583324 -0.321458 1.399052 48 37 33
-0.567315 0.100257 1.522208 76 48 26
-0.563228 0.192071 1.547582 70 40 29
-0.552193 0.109190 1.530319 100 49 22
-0.549673 0.044834 1.516193 88 45 29
-0.556880 -0.322592 1.405558 212 151 94
-0.530220 0.301165 1.590351 139 90 57
-0.520894 0.090997 1.539257 125 72 41
-0.519268 -0.059497 1.497812 184 150 122
-0.508400 0.162877 1.560033 219 203 187
-0.508400 0.162877 1.560033 219 203 187
-0.514762 -0.319916 1.416106 167 114 64
-0.492132 0.047948 1.535871 206 193 176
-0.492132 0.047948 1.535871 206 193 176
-0.491700 -0.033572 1.513919 188 114 67
-0.490559 -0.058102 1.506488 227 214 198
-0.494709 -0.153509 1.474537 21 24 33
-0.437648 0.210980 1.600564 82 51 31
-0.427674 0.395818 1.651591 218 195 164
-0.405440 0.296580 1.634961 105 58 30
-0.408722 -0.064986 1.525214 212 138 77
-0.387977 0.097608 1.582987 181 110 64
-0.356031 0.283464 1.645891 100 56 31
-0.371914 -0.041952 1.541843 109 63 37
-0.346322 0.291930 1.650035 157 95 54
-0.361791 -0.059026 1.538779 134 83 54
-0.352586 -0.044429 1.546103 208 133 76
-0.371248 -0.332267 1.443240 133 72 41
-0.317250 -0.007432 1.566498 145 80 42
-0.275901 0.104131 1.613730 122 75 45
-0.301657 -0.219804 1.501799 169 115 55
-0.301657 -0.219804 1.501799 169 115 55
-0.259704 -0.080743 1.558826 144 91 59
-0.230613 0.177998 1.650955 195 124 72
-0.177201 0.225828 1.680316 113 69 44
-0.173381 0.232896 1.682954 181 113 66
-0.173381 0.232896 1.682954 181 113 66
-0.162310 0.200421 1.676135 135 81 45
-0.219505 -0.333670 1.475441 203 134 77
-0.122199 0.263690 1.706297 78 47 26
-0.166549 -0.323671 1.490049 234 227 221
0.099250 -0.240198 1.455333 210 98 94
0.113421 0.147094 1.500720 92 49 42
0.110709 -0.237632 1.440848 211 102 97
0.112135 -0.243497 1.438063 224 227 232
0.121126 -0.196232 1.438267 214 223 228
0.121126 -0.196232 1.438267 214 223 228
0.123298 -0.219451 1.432556 223 233 235
0.123298 -0.219451 1.432556 223 233 235
0.128252 -0.235155 1.427318 213 100 94
0.128252 -0.235155 1.427318 213 100 94
0.128343 -0.260910 1.422520 211 95 95
0.131115 -0.240598 1.420958 222 225 230
0.145436 0.094132 1.459452 31 21 22
0.143400 -0.238860 1.410230 220 223 230
0.144721 -0.245112 1.406839 212 103 100
0.145927 -0.231501 1.405943 209 100 95
0.145927 -0.231501 1.405943 209 100 95
0.155701 -0.230928 1.399943 208 96 92
0.155701 -0.230928 1.399943 208 96 92
0.155396 -0.214212 1.402392 211 102 95
0.165558 -0.228421 1.385568 210 101 96
0.165558 -0.228421 1.385568 210 101 96
0.186917 -0.137407 1.380290 202 215 224
0.190816 -0.224672 1.364191 206 97 94
0.213781 0.074512 1.387005 213 193 194
0.206644 -0.228988 1.346584 221 226 230
0.209520 -0.221382 1.343210 216 104 100
0.209520 -0.221382 1.343210 216 104 100
0.227701 -0.139507 1.338752 193 210 218
0.227701 -0.139507 1.338752 193 210 218
0.242631 -0.076663 1.333868 179 201 215
0.247101 -0.215821 1.308414 211 99 98
0.247101 -0.215821 1.308414 211 99 98
0.268016 -0.021877 1.315648 129 170 198
0.275091 0.164754 1.340816 52 42 50
0.324892 -0.017481 1.259378 213 218 224
0.381635 -0.187270 1.174093 205 212 222
0.381635 -0.187270 1.174093 205 212 222
0.419703 0.222287 1.205334 92 140 188
0.428308 0.108304 1.177423 180 206 231
0.428308 0.108304 1.177423 180 206 231
0.432270 0.078657 1.167966 123 139 173
0.432270 0.078657 1.167966 123 139 173
0.441579 0.004627 1.145922 190 210 221
0.463230 0.086706 1.139223 131 172 202
0.467544 0.076161 1.133712 137 176 207
0.467544 0.076161 1.133712 137 176 207
0.485772 0.075760 1.115261 134 171 200
0.505993 -0.012549 1.080374 169 190 207
-0.666813 -0.270931 1.390999 95 45 20
-0.664135 -0.019203 1.457445 82 40 18
-0.656781 -0.247221 1.401479 105 54 37
-0.653688 -0.170491 1.424598 206 148 85
-0.643883 0.047505 1.482605 114 57 28
-0.599432 0.093701 1.509540 105 63 38
-0.599432 0.093701 1.509540 105 63 38
-0.587253 -0.026359 1.484208 65 32 13
-0.588029 -0.141454 1.452943 19 22 29
-0.588029 -0.141454 1.452943 19 22 29
-0.586121 -0.062186 1.474952 189 116 65
-0.589544 -0.306560 1.402631 73 52 47
-0.562692 0.323385 1.583617 118 69 37
-0.556648 0.375689 1.598010 122 66 33
-0.564029 -0.286351 1.415194 104 51 19
-0.538341 0.050310 1.521216 78 44 32
-0.521777 0.157576 1.552552 217 211 189
-0.508140 -0.023910 1.511668 79 61 49
-0.492126 0.232216 1.586598 82 55 36
-0.492126 0.232216 1.586598 82 55 36
-0.503775 -0.184822 1.462198 153 99 39
-0.503775 -0.184822 1.462198 153 99 39
-0.486430 0.146746 1.563953 213 147 97
-0.458203 0.376869 1.636964 82 51 33
-0.456128 0.180604 1.584571 111 57 29
-0.478082 -0.220213 1.457110 150 101 34
-0.445227 0.097800 1.566166 125 74 43
-0.428392 0.068833 1.562887 77 46 26
-0.428392 0.068833 1.562887 77 46 26
-0.428101 0.082069 1.567140 65 38 19
-0.338996 0.140880 1.609922 93 57 35
-0.327491 0.283235 1.656604 178 104 55
-0.327491 0.283235 1.656604 178 104 55
-0.318412 0.195879 1.631340 202 131 79
-0.316461 0.141591 1.617697 199 136 83
-0.251964 0.011258 1.592363 200 131 74
-0.252962 -0.244070 1.503334 160 102 39
-0.130663 0.040949 1.630825 197 127 78
-0.131881 -0.128950 1.568068 208 136 78
0.091332 -0.022875 1.500171 203 212 219
0.097903 -0.174519 1.466340 179 191 203
0.109115 0.109643 1.501190 209 208 188
0.108617 0.029703 1.487396 189 132 139
0.104597 -0.173239 1.458041 201 215 228
0.111799 -0.151043 1.455887 201 214 223
0.118536 -0.164738 1.447632 201 211 221
0.175478 0.178343 1.444845 207 214 222
0.175478 0.178343 1.444845 207 214 222
0.178142 -0.153972 1.386899 202 215 223
0.178142 -0.153972 1.386899 202 215 223
0.183884 -0.153239 1.380747 199 212 220
0.183884 -0.153239 1.380747 199 212 220
0.200656 -0.136734 1.366880 203 216 224
0.230880 -0.145361 1.334421 204 214 223
0.236690 0.049145 1.359455 225 228 233
0.247256 0.104770 1.358823 236 237 241
0.241558 -0.234269 1.308861 229 230 234
0.241558 -0.234269 1.308861 229 230 234
0.284785 -0.019413 1.303622 165 198 217
0.298776 0.031673 1.293910 89 126 171
0.361850 0.107371 1.247436 110 163 205
0.361850 0.107371 1.247436 110 163 205
0.389298 0.092943 1.213174 116 169 203
0.408256 0.103731 1.196570 195 171 184
0.416780 0.131180 1.193018 74 48 121
0.513224 -0.024209 1.071536 175 193 213
-0.649849 -0.018026 1.462625 92 54 33
-0.634347 -0.280591 1.398886 46 25 8
-0.615868 0.114794 1.507295 177 107 58
-0.592384 0.054152 1.503709 137 88 58
-0.590493 -0.189074 1.437872 147 92 35
-0.568318 -0.206035 1.438408 140 86 24
-0.553986 -0.292889 1.415761 213 154 88
-0.537026 0.147192 1.545698 75 46 30
-0.513925 -0.036449 1.504389 76 57 40
-0.453840 0.122617 1.571558 190 117 62
-0.453840 0.122617 1.571558 190 117 62
-0.438267 0.054591 1.554913 72 36 14
-0.405984 0.201751 1.608135 111 74 47
-0.391644 0.328221 1.647215 170 107 56
-0.396899 -0.042034 1.535912 194 124 72
-0.241490 -0.225120 1.513579 42 36 36
0.101597 -0.019767 1.487069 202 181 178
0.112412 -0.272614 1.435246 227 226 231
0.112412 -0.272614 1.435246 227 226 231
0.153158 -0.223019 1.404972 216 219 224
0.153158 -0.223019 1.404972 216 219 224
0.217681 0.083704 1.385479 69 83 112
0.217681 0.083704 1.385479 69 83 112
0.283848 -0.209693 1.270216 214 104 107
0.309801 0.289371 1.325439 237 232 229
0.309801 0.289371 1.325439 237 232 229
0.384308 -0.028220 1.198024 234 230 231
0.404431 0.196492 1.216604 224 224 226
0.407718 0.117136 1.199100 129 172 206
0.415003 0.019306 1.173235 216 185 183
0.415003 0.019306 1.173235 216 185 183
-0.654227 -0.310974 1.382450 68 59 44
-0.625531 0.026548 1.482715 50 28 17
-0.540943 0.136192 1.539106 195 123 65
-0.551843 -0.315447 1.409416 94 55 40
-0.514839 0.053077 1.531641 164 83 36
-0.283115 0.257366 1.658206 153 90 47
-0.207091 0.182481 1.658775 200 125 70
-0.207091 0.182481 1.658775 200 125 70
-0.210547 -0.142239 1.549871 200 187 181
0.062319 0.026283 1.535210 198 209 215
0.287774 0.049255 1.306777 79 115 165
0.304707 0.188474 1.314508 224 225 227
0.335558 0.302573 1.301906 235 230 227
0.361628 0.305936 1.273939 234 229 226
0.402639 0.088272 1.199385 182 214 235
0.414466 0.315735 1.222473 235 230 227
-0.599567 -0.315293 1.395983 89 61 49
-0.522173 -0.325505 1.410999 83 49 37
-0.443071 0.293949 1.622139 173 106 51
-0.389042 0.160968 1.600296 170 102 53
0.197636 0.021539 1.396247 219 223 226
-0.554266 0.031879 1.511329 208 180 156
-0.315272 0.007159 1.575643 101 64 46
-0.315272 0.007159 1.575643 101 64 46
0.105804 0.015483 1.489058 85 45 54
0.105819 -0.290975 1.442458 201 103 100
0.365721 0.213454 1.258673 172 199 218
0.389386 0.088573 1.216677 118 172 208
0.397444 -0.119483 1.172326 235 231 230
-0.489862 0.286304 1.602535 67 48 34
0.175663 -0.195900 1.379132 205 93 91
0.198404 0.171166 1.421274 66 66 64
0.299163 0.127155 1.316708 224 225 229
0.299163 0.127155 1.316708 224 225 229
0.365245 0.173483 1.255392 158 193 212
0.275048 0.093630 1.333110 52 59 87
-0.428520 0.151566 1.583614 90 59 39
0.147047 0.134688 1.465066 168 183 204
0.392241 0.121354 1.217903 90 126 176
0.000000 0.000000 0.000000 255 0 0
-0.959529 0.095928 -0.264767 255 0 0
