ply
format ascii 1.0
comment written by Chenxi
element vertex 887
property float32 x
property float32 y
property float32 z
property uchar red
property uchar green
property uchar blue
end_header
-0.629	-0.247	1.64	95	96	100
-0.576	-0.144	1.67	67	66	71
-0.563	-0.0494	1.68	86	87	91
-0.479	-0.0661	1.71	53	83	111
-0.398	-0.316	1.71	222	208	205
-0.41	0.306	1.79	216	200	201
-0.372	-0.431	1.82	22	106	153
-0.28	-0.0221	1.93	115	28	8
-0.277	0.11	1.94	51	58	68
-0.275	0.124	1.94	60	67	77
-0.273	0.0999	1.94	16	32	45
-0.262	-0.00241	1.94	178	88	62
-0.253	0.0336	1.95	139	62	44
-0.254	0.274	1.97	199	152	110
-0.247	0.29	1.98	183	121	72
-0.239	0.0366	1.96	144	68	54
-0.236	0.183	1.98	0	22	48
-0.237	0.28	2	180	110	41
-0.231	0.0354	1.97	152	79	64
-0.232	0.264	1.99	164	119	80
-0.221	-0.0804	1.97	182	112	42
-0.209	-0.286	1.97	15	89	136
-0.211	0.279	2.02	195	133	72
-0.208	0.137	2	57	80	98
-0.199	-0.125	1.99	110	119	136
-0.2	0.144	2.01	80	83	102
-0.189	0.0249	2.01	68	23	18
-0.191	0.232	2.04	149	106	87
-0.183	-0.198	2	13	92	123
-0.188	0.27	2.05	172	109	65
-0.18	-0.294	1.99	23	114	169
-0.182	-0.00628	2.01	80	40	32
-0.182	0.02	2.02	78	43	39
-0.18	-0.00168	2.02	63	19	18
-0.177	-0.0122	2.02	34	5	7
-0.174	-0.235	2	29	120	173
-0.174	0.172	2.04	160	166	188
-0.152	-0.237	2.02	19	85	133
-0.142	0.158	2.08	0	23	45
-0.139	0.126	2.07	55	90	130
-0.128	0.155	2.09	127	152	182
-0.122	-0.436	2.04	76	148	196
-0.113	-0.438	2.05	65	137	185
-0.113	-0.444	2.05	0	59	107
-0.11	-0.447	2.05	70	142	190
-0.11	-0.171	2.07	97	133	159
-0.106	-0.439	2.05	0	76	124
-0.107	-0.28	2.07	33	121	169
-0.106	-0.0846	2.09	63	45	25
-0.094	-0.118	2.09	75	63	51
-0.0906	-0.256	2.03	11	78	121
-0.0937	-0.0584	2.1	82	46	22
-0.0903	-0.0574	2.1	124	96	75
-0.0869	-0.289	2.08	163	181	193
-0.086	-0.163	2.13	147	150	159
-0.0805	-0.125	2.11	39	48	47
-0.0805	0.0319	2.13	72	46	9
-0.0748	0.0486	2.14	132	78	54
-0.0736	-0.0545	2.12	34	45	51
-0.0736	-0.0545	2.12	34	45	51
-0.0729	0.0278	2.13	52	21	1
-0.0702	-0.0059	2.13	135	112	70
-0.0678	-0.268	2.1	152	175	191
-0.067	-0.0166	2.13	60	86	38
-0.0623	-0.218	2.12	143	166	197
-0.0592	-0.0256	2.14	86	134	118
-0.0538	-0.461	2.1	0	63	111
-0.0518	-0.293	2.12	2	72	121
-0.0511	-0.465	2.1	66	142	191
-0.0499	-0.372	2.11	4	66	103
-0.0421	0.0411	2.17	52	26	13
-0.0391	0.124	2.19	99	122	153
-0.032	0.116	2.2	119	136	166
-0.0312	-0.229	2.15	6	59	101
-0.0292	-0.016	2.18	131	87	50
-0.0262	-0.226	2.16	7	74	127
-0.0242	-0.316	2.14	28	73	112
-0.0245	0.0174	2.19	44	16	13
-0.0232	0.212	2.23	9	24	47
-0.00662	-0.358	2.16	0	55	86
-0.00222	0.114	2.23	131	142	164
0.0139	0.0524	2.24	75	20	15
0.0172	0.101	2.25	0	12	43
0.0251	0.105	2.26	12	29	49
0.0295	-0.648	2.05	17	33	67
0.127	-0.24	2.1	47	78	142
0.197	-0.127	2.1	50	51	35
0.201	-0.138	2.09	179	185	159
0.212	-0.237	2.05	189	183	149
0.226	-0.181	2.06	184	179	150
0.233	-0.0745	2.09	71	72	64
0.233	-0.237	2.04	195	199	174
0.266	-0.346	1.99	58	85	140
0.277	-0.0778	2.06	190	194	169
0.314	-0.213	2	196	197	179
0.32	-0.213	2	194	197	170
0.344	-0.214	1.98	192	192	164
0.348	-0.211	1.98	193	193	167
0.374	-0.0668	2.01	181	183	178
0.403	-0.169	1.96	187	187	159
0.425	0.0521	2.01	61	59	73
0.456	-0.222	1.91	191	187	162
0.452	-0.413	1.86	196	212	238
0.464	-0.254	1.9	193	200	182
0.481	-0.325	1.87	204	212	197
0.49	-0.325	1.86	199	199	199
0.492	-0.298	1.87	183	189	175
0.494	-0.258	1.88	37	47	38
0.401	0.248	0.723	117	116	111
-2.55	-0.399	4.02	228	217	213
-0.966	-0.155	1.52	126	86	84
-0.966	-0.155	1.52	126	86	84
-0.432	-0.19	1.7	210	208	213
-0.399	0.299	1.77	162	160	165
-0.314	0.00472	1.9	143	144	149
-0.284	0.107	1.93	19	29	41
-0.28	0.087	1.93	25	40	61
-0.275	0.119	1.94	28	34	46
-0.244	-0.0416	1.95	92	26	2
-0.235	-0.065	1.96	113	31	0
-0.223	0.145	1.99	66	39	30
-0.22	0.131	1.99	65	66	60
-0.207	-0.3	1.97	0	73	119
-0.209	0.126	2	19	48	80
-0.206	0.0224	1.99	68	23	18
-0.189	0.18	2.03	0	31	47
-0.185	-0.013	2.01	97	61	63
-0.183	-0.0317	2.01	40	14	17
-0.181	-0.229	2	3	82	123
-0.181	0.0769	2.02	149	152	159
-0.177	-0.0187	2.02	25	3	5
-0.163	-0.0234	2.03	48	22	25
-0.157	0.135	2.06	10	48	85
-0.152	-0.325	2.02	1	75	112
-0.144	-0.328	2.02	0	67	100
-0.133	-0.215	2.04	41	88	118
-0.129	-0.24	2.02	12	92	129
-0.128	-0.436	2.03	50	126	175
-0.12	-0.446	2.04	0	55	103
-0.107	-0.0934	2.08	73	48	26
-0.0962	-0.114	2.09	129	112	94
-0.0872	0.15	2.14	21	37	62
-0.0763	-0.457	2.08	67	137	188
-0.0738	-0.00481	2.13	56	58	11
-0.0701	0.143	2.16	148	163	192
-0.069	-0.0689	2.12	75	58	40
-0.0656	-0.461	2.09	54	130	179
-0.0619	0.139	2.17	131	148	174
-0.0594	-0.0904	2.13	170	132	109
-0.0591	0.135	2.17	0	18	42
-0.0485	-0.299	2.12	0	66	103
-0.0445	-0.0292	2.16	76	123	107
-0.0411	-0.24	2.13	143	149	171
-0.0397	-0.302	2.13	0	58	97
-0.0355	-0.242	2.14	162	179	197
-0.0342	-0.228	2.14	173	171	193
-0.0342	-0.228	2.14	173	171	193
-0.0332	-0.537	2.12	37	53	86
-0.0337	0.0342	2.18	60	27	12
-0.0294	0.122	2.2	144	141	168
-0.0256	-0.243	2.15	34	59	81
-0.0254	-0.0164	2.18	86	57	17
-0.0237	-0.247	2.15	140	148	187
-0.0238	0.043	2.19	66	49	21
-0.0198	0.115	2.21	0	19	51
-0.0187	0.122	2.21	7	32	54
-0.0187	0.122	2.21	7	32	54
-0.0168	-0.248	2.16	156	167	189
-0.0111	0.12	2.22	6	26	50
-0.0057	0.115	2.23	15	34	67
-0.0057	0.115	2.23	15	34	67
0.00411	-0.184	2.19	31	37	49
0.00647	0.115	2.24	124	141	169
0.00965	0.112	2.25	0	21	42
0.0121	-0.144	2.21	76	54	33
0.0121	-0.144	2.21	76	54	33
0.106	-0.599	2.02	166	166	140
0.106	-0.599	2.02	166	166	140
0.132	-0.599	2.01	37	63	90
0.164	0.156	2.19	186	199	234
0.162	-0.218	2.09	66	61	39
0.178	0.14	2.18	173	179	211
0.18	-0.168	2.09	43	44	28
0.205	-0.0462	2.11	181	184	155
0.234	-0.181	2.06	175	170	151
0.263	0.0457	2.1	180	163	155
0.263	0.0457	2.1	180	163	155
0.259	-0.098	2.06	193	197	170
0.263	-0.0833	2.06	187	186	168
0.278	-0.189	2.03	71	73	52
0.285	-0.192	2.03	187	189	167
0.279	-0.53	1.94	188	197	226
0.298	-0.215	2.01	60	63	42
0.313	0.0647	2.08	67	75	112
0.327	0.0445	2.06	59	51	74
0.369	-0.132	1.99	177	178	162
0.369	-0.209	1.97	115	117	96
0.389	-0.198	1.96	98	98	72
0.389	-0.198	1.96	98	98	72
0.407	-0.0245	2	175	183	172
0.399	-0.196	1.95	197	197	173
0.422	-0.21	1.94	58	66	43
0.24	0.537	1.07	120	120	112
0.423	-0.49	1.86	0	32	75
0.422	-0.516	1.85	186	187	207
0.452	-0.215	1.92	46	51	29
0.46	-0.279	1.89	24	28	11
0.482	-0.25	1.89	46	55	34
0.485	-0.272	1.88	183	182	161
0.491	-0.259	1.88	50	55	35
0.491	-0.259	1.88	50	55	35
0.491	-0.274	1.87	47	51	34
0.491	-0.274	1.87	47	51	34
0.492	-0.303	1.87	187	193	179
0.398	0.107	1.24	32	54	95
-0.9	-0.165	1.55	76	102	129
-0.894	-0.146	1.55	216	239	255
-0.894	-0.146	1.55	216	239	255
-0.661	-0.346	1.66	222	205	213
-0.637	-0.207	1.64	216	216	218
-0.637	-0.0441	1.66	200	201	205
-0.608	-0.23	1.65	133	134	138
-0.524	-0.251	1.68	145	146	150
-0.465	0.0219	1.72	220	220	232
-0.372	-0.431	1.82	20	106	153
-0.291	0.0605	1.92	28	36	55
-0.283	0.0557	1.93	51	58	68
-0.276	0.113	1.94	37	41	52
-0.271	0.00609	1.93	152	75	55
-0.256	0.276	1.97	175	119	60
-0.249	0.0324	1.96	137	53	29
-0.237	-0.0865	1.96	108	49	31
-0.226	0.179	1.99	19	49	85
-0.22	0.0568	1.98	66	25	21
-0.213	0.183	2	163	170	196
-0.198	-0.176	1.98	158	174	189
-0.197	0.0223	2	119	72	62
-0.197	0.0223	2	119	72	62
-0.195	0.142	2.02	38	75	104
-0.195	0.182	2.02	0	14	38
-0.192	0.181	2.02	161	158	177
-0.191	0.232	2.04	149	106	87
-0.175	0.169	2.04	9	24	43
-0.163	-0.195	2.01	22	118	160
-0.163	-0.202	2.01	164	166	178
-0.161	-0.198	2.02	34	96	137
-0.16	0.133	2.05	40	85	118
-0.147	0.166	2.07	1	17	40
-0.14	-0.194	2.04	164	159	166
-0.12	-0.312	2.05	19	79	115
-0.11	-0.279	2.06	20	85	127
-0.0987	-0.45	2.06	59	134	176
-0.099	-0.0687	2.09	110	71	38
-0.0943	-0.223	2.08	170	171	166
-0.0783	0.0222	2.13	62	28	1
-0.0783	0.0222	2.13	62	28	1
-0.0761	-0.0611	2.12	101	94	86
-0.0751	-0.0194	2.13	49	104	98
-0.0708	0.13	2.15	0	22	53
-0.067	0.128	2.16	140	155	184
-0.067	0.128	2.16	140	155	184
-0.0626	-0.0809	2.13	70	54	41
-0.0576	0.127	2.17	0	24	60
-0.0493	-0.238	2.13	145	159	172
-0.0476	0.0558	2.17	60	37	21
-0.0462	0.134	2.18	155	161	187
-0.0309	0.112	2.2	1	29	68
-0.0249	-0.0218	2.18	91	77	48
-0.0233	0.212	2.23	9	24	47
-0.0222	-0.236	2.15	161	143	157
-0.0207	-0.365	2.14	9	61	101
-0.0162	0.012	2.2	62	43	28
-0.0153	-0.197	2.17	55	84	114
-0.00628	-0.472	2.14	0	62	114
-0.0056	0.0822	2.22	13	30	60
0.00667	0.108	2.24	120	134	163
0.181	-0.207	2.08	147	140	111
0.197	-0.127	2.1	63	66	49
0.209	-0.433	2.01	178	191	233
0.209	-0.615	1.96	194	200	224
0.25	0.168	2.14	166	181	212
0.308	-0.212	2.01	196	199	170
0.317	-0.215	2	49	58	37
0.317	-0.215	2	49	58	37
0.307	-0.517	1.92	0	32	75
0.32	-0.213	2	190	190	162
0.324	-0.407	1.94	174	188	227
0.346	0.0625	2.06	192	164	161
0.346	0.0625	2.06	192	164	161
0.378	-0.204	1.96	178	184	150
0.387	-0.0521	2	72	75	58
0.387	-0.0521	2	72	75	58
0.391	-0.0441	2	186	187	182
0.386	-0.2	1.96	183	183	155
0.386	-0.596	1.86	187	197	224
0.386	-0.596	1.86	187	197	224
0.421	-0.108	1.96	78	79	65
0.242	0.538	1.07	47	47	39
0.242	0.538	1.07	47	47	39
0.446	-0.199	1.93	58	55	40
0.453	-0.223	1.91	40	45	23
0.461	-0.283	1.89	154	163	144
0.466	-0.252	1.9	44	45	27
0.489	-0.215	1.89	192	194	172
-0.921	-0.195	1.53	156	105	101
-0.878	-0.172	1.55	85	103	123
-0.857	-0.067	1.57	125	126	130
-0.889	0.384	1.67	151	68	38
-0.712	-0.134	1.62	192	180	180
-0.595	-0.232	1.65	170	169	174
-0.291	0.176	1.94	18	48	82
-0.275	0.119	1.94	29	33	42
-0.244	0.0166	1.96	156	82	69
-0.223	-0.0622	1.97	184	106	58
-0.215	-0.0848	1.98	111	67	32
-0.216	0.0338	1.98	99	23	9
-0.207	-0.308	1.96	3	77	122
-0.207	-0.308	1.96	3	77	122
-0.201	-0.0951	1.99	101	55	32
-0.203	0.132	2.01	18	53	85
-0.203	0.132	2.01	18	53	85
-0.198	-0.139	1.99	146	149	158
-0.199	0.034	2	54	14	12
-0.188	-0.00356	2.01	109	64	67
-0.182	-0.181	2	150	163	180
-0.18	-0.0174	2.01	36	10	11
-0.175	0.116	2.03	18	60	98
-0.174	0.177	2.04	2	22	46
-0.166	0.000292	2.03	110	46	37
-0.158	-0.188	2.02	19	84	126
-0.155	-0.328	2.01	8	79	131
-0.153	-0.189	2.02	161	161	163
-0.138	-0.254	2.04	22	91	133
-0.137	-0.212	2.04	184	173	177
-0.138	0.167	2.08	156	164	183
-0.12	-0.441	2.04	0	67	115
-0.114	-0.0902	2.07	54	47	41
-0.11	-0.0783	2.08	108	104	93
-0.108	0.0366	2.09	39	45	41
-0.102	-0.221	2.07	174	181	197
-0.0945	-0.0653	2.1	90	63	34
-0.0844	-0.449	2.07	0	63	112
-0.0844	-0.449	2.07	0	63	112
-0.0854	0.0173	2.12	60	68	31
-0.0856	0.0572	2.12	41	63	25
-0.075	0.0538	2.14	46	42	17
-0.0716	-0.0603	2.12	38	35	30
-0.064	-0.362	2.1	7	87	138
-0.0636	0.058	2.15	93	88	59
-0.0595	-0.35	2.1	5	70	112
-0.0599	-0.23	2.12	3	62	96
-0.0592	-0.235	2.12	156	148	161
-0.0397	-0.468	2.11	58	136	184
-0.0397	-0.468	2.11	58	136	184
-0.0318	-0.0471	2.16	34	51	45
-0.0259	-0.234	2.15	27	66	105
-0.0258	0.123	2.21	0	23	45
-0.0258	0.123	2.21	0	23	45
-0.0229	-0.232	2.16	163	164	169
-0.0155	-0.235	2.16	160	160	194
-0.000219	0.119	2.24	150	161	181
0.012	-0.144	2.21	75	58	42
0.0164	0.105	2.26	128	144	167
0.136	-0.223	2.11	188	185	166
0.179	0.136	2.18	41	65	125
0.18	0.157	2.18	171	181	217
0.173	-0.229	2.08	196	182	143
0.189	-0.0342	2.12	33	61	101
0.21	-0.219	2.06	36	38	17
0.21	-0.219	2.06	36	38	17
0.221	-0.162	2.07	149	134	105
0.228	-0.176	2.06	191	182	151
0.234	-0.176	2.06	193	182	154
0.246	-0.193	2.05	177	170	142
0.258	-0.0858	2.07	64	64	52
0.27	0.151	2.13	39	66	113
0.258	-0.405	1.98	56	87	144
0.258	-0.405	1.98	56	87	144
0.283	0.0382	2.09	188	170	158
0.286	-0.189	2.02	45	48	31
0.295	-0.2	2.02	199	197	176
0.305	-0.0777	2.04	194	194	168
0.288	-0.61	1.91	191	197	219
0.306	-0.218	2.01	193	188	169
0.328	0.0591	2.07	59	55	69
0.318	-0.218	2	188	182	158
0.326	-0.0763	2.03	53	55	41
0.357	-0.135	2	102	109	91
0.374	0.054	2.04	76	65	63
0.365	-0.605	1.87	204	206	231
0.374	-0.424	1.91	186	195	224
0.387	-0.182	1.96	183	182	152
0.415	-0.108	1.97	95	97	86
0.436	-0.185	1.93	181	180	152
0.457	-0.141	1.93	175	160	129
0.476	-0.164	1.91	37	40	33
0.477	-0.199	1.91	83	87	64
0.485	-0.192	1.9	56	60	45
0.487	-0.202	1.9	189	185	160
0.494	-0.142	1.91	61	65	42
0.493	-0.256	1.88	187	189	165
0.492	-0.298	1.87	200	204	187
-0.883	-0.151	1.55	209	230	247
-0.881	-0.154	1.55	71	111	146
-0.875	-0.0713	1.56	165	166	168
-0.875	-0.0713	1.56	165	166	168
-0.875	-0.0713	1.56	165	166	168
-0.852	-0.154	1.56	218	230	244
-0.71	-0.0324	1.63	223	224	228
-0.637	-0.207	1.64	215	215	217
-0.637	-0.0442	1.66	208	209	213
-0.591	-0.202	1.66	165	166	171
-0.591	-0.202	1.66	165	166	171
-0.574	-0.138	1.67	202	203	208
-0.568	-0.14	1.68	216	215	220
-0.517	-0.264	1.68	114	115	119
-0.517	-0.264	1.68	114	115	119
-0.511	-0.253	1.68	124	125	130
-0.288	0.122	1.93	36	50	77
-0.28	0.0247	1.93	109	65	56
-0.26	-0.0146	1.94	176	92	64
-0.249	0.0112	1.96	167	78	62
-0.245	-0.0582	1.95	195	116	49
-0.245	-0.00123	1.96	41	17	13
-0.241	-0.134	1.95	54	113	155
-0.24	-0.034	1.96	44	23	18
-0.225	-0.0523	1.97	161	99	78
-0.218	0.179	2	159	174	195
-0.205	0.0294	2	66	24	12
-0.203	0.0168	2	41	23	13
-0.203	0.123	2	28	68	103
-0.198	-0.176	1.98	166	170	179
-0.2	0.144	2.01	78	83	102
-0.191	-0.179	1.99	175	166	161
-0.181	-0.0608	2.01	77	24	20
-0.181	-0.00932	2.02	43	9	8
-0.179	-0.232	2	160	182	203
-0.178	-0.0584	2.01	128	59	52
-0.176	-0.0665	2.01	91	23	10
-0.14	-0.194	2.04	166	160	164
-0.136	0.128	2.08	14	43	75
-0.124	-0.2	2.05	175	165	173
-0.124	-0.2	2.05	175	165	173
-0.121	-0.245	2.05	32	118	169
-0.116	-0.346	2.05	16	100	144
-0.0968	-0.114	2.09	119	102	84
-0.0917	-0.0624	2.1	198	132	82
-0.0866	-0.0637	2.11	67	56	34
-0.079	-0.00224	2.12	55	77	28
-0.0783	0.043	2.13	150	99	56
-0.0732	0.0239	2.13	122	83	54
-0.0699	-0.215	2.11	153	160	170
-0.0709	0.13	2.15	0	23	54
-0.0634	-0.099	2.13	139	96	79
-0.0606	-0.121	2.13	108	94	83
-0.0599	-0.115	2.13	143	110	91
-0.055	-0.11	2.14	89	100	106
-0.0501	0.134	2.18	12	42	66
-0.0432	-0.0077	2.16	42	38	37
-0.033	-0.47	2.12	48	122	171
-0.033	-0.47	2.12	48	122	171
-0.0298	-0.281	2.14	0	67	109
-0.00373	-0.318	2.17	20	81	128
0.00575	-0.151	2.2	73	92	107
0.0174	0.0495	2.24	81	41	41
0.166	-0.204	2.09	59	53	37
0.17	-0.421	2.03	21	64	109
0.185	-0.125	2.1	188	190	189
0.185	-0.125	2.1	188	190	189
0.206	-0.0642	2.11	198	198	198
0.21	-0.426	2.01	189	199	226
0.23	0.16	2.15	185	184	216
0.225	-0.218	2.05	24	23	2
0.227	-0.204	2.06	24	28	11
0.237	0.16	2.15	187	181	207
0.237	0.16	2.15	187	181	207
0.244	0.161	2.14	176	185	216
0.232	-0.5	1.97	12	49	94
0.251	-0.0862	2.07	202	203	198
0.258	0.16	2.14	51	74	118
0.258	0.16	2.14	51	74	118
0.262	0.157	2.13	181	182	202
0.263	0.0458	2.1	196	174	160
0.263	0.0458	2.1	196	174	160
0.264	0.058	2.1	202	171	150
0.261	-0.202	2.04	193	184	153
0.261	-0.202	2.04	193	184	153
0.262	-0.194	2.04	180	168	144
0.292	0.0597	2.09	194	165	149
0.292	0.0597	2.09	194	165	149
0.285	-0.197	2.02	47	57	32
0.285	-0.197	2.02	47	57	32
0.313	0.0648	2.08	56	73	119
0.327	0.0445	2.06	69	72	107
0.34	0.0548	2.06	55	76	129
0.359	-0.181	1.98	188	193	163
0.363	-0.131	1.99	186	185	181
0.37	-0.132	1.99	181	182	164
0.369	-0.209	1.97	115	117	96
0.376	-0.145	1.98	77	82	60
0.381	-0.139	1.98	187	190	163
0.393	0.0657	2.03	175	157	143
0.393	0.0657	2.03	175	157	143
0.388	-0.164	1.97	82	85	74
0.412	0.0668	2.02	193	166	159
0.399	-0.416	1.9	192	199	225
0.438	-0.153	1.94	196	192	157
0.443	-0.177	1.93	56	57	43
0.457	-0.18	1.92	180	161	131
0.472	-0.164	1.92	51	51	41
0.488	-0.159	1.91	67	79	59
0.496	-0.163	1.9	60	67	60
0.453	0.828	1.62	26	26	14
-0.875	-0.155	1.55	79	130	175
-0.873	-0.098	1.56	135	90	85
-0.868	-0.0754	1.57	212	213	217
-0.862	-0.0695	1.57	208	209	213
-0.862	-0.0695	1.57	208	209	213
-0.86	-0.0793	1.57	140	141	145
-0.862	-0.0638	1.57	213	214	218
-0.903	0.388	1.69	165	79	46
-0.647	-0.132	1.65	80	79	84
-0.647	-0.132	1.65	80	79	84
-0.631	-0.206	1.64	162	162	164
-0.613	-0.248	1.65	146	147	151
-0.613	-0.248	1.65	146	147	151
-0.582	-0.232	1.66	155	154	159
-0.551	0.0345	1.7	195	199	202
-0.551	0.0345	1.7	195	199	202
-0.508	-0.265	1.68	194	195	199
-0.305	0.0541	1.91	34	41	51
-0.291	0.0603	1.92	29	35	49
-0.287	-0.0882	1.91	51	131	168
-0.27	0.092	1.94	19	41	55
-0.261	0.11	1.95	49	58	63
-0.244	0.0212	1.96	102	25	7
-0.236	-0.0693	1.96	200	119	64
-0.226	0.107	1.98	69	88	94
-0.196	-0.313	1.97	168	185	203
-0.19	-0.199	1.99	20	106	155
-0.184	0.267	2.05	151	94	67
-0.176	-0.0541	2.01	88	20	7
-0.147	0.128	2.06	39	70	99
-0.136	-0.174	2.05	27	111	158
-0.118	-0.216	2.06	172	175	182
-0.117	-0.0752	2.07	40	44	45
-0.116	0.164	2.1	23	47	75
-0.103	-0.0952	2.09	94	76	64
-0.101	-0.0603	2.09	47	46	41
-0.0995	-0.207	2.08	172	158	158
-0.085	-0.123	2.1	124	125	130
-0.0854	0.0049	2.12	120	139	83
-0.084	-0.0602	2.11	127	109	89
-0.0851	0.147	2.14	156	162	174
-0.0824	-0.296	2.09	25	107	147
-0.0816	-0.0703	2.11	102	85	67
-0.0796	0.0556	2.13	104	103	57
-0.0775	-0.0664	2.12	50	40	28
-0.0737	0.0194	2.13	48	25	9
-0.0681	0.0491	2.14	150	96	68
-0.065	0.0527	2.15	27	28	10
-0.0495	-0.304	2.12	156	176	203
-0.0495	-0.304	2.12	156	176	203
-0.0508	-0.0319	2.15	49	120	116
-0.0405	-0.314	2.13	9	74	138
-0.0368	-0.472	2.12	0	75	123
-0.0368	-0.472	2.12	0	75	123
-0.0368	-0.472	2.12	0	75	123
-0.0311	-0.353	2.13	0	69	113
-0.0311	-0.353	2.13	0	69	113
-0.0112	0.127	2.22	4	33	67
-0.0088	-0.29	2.17	7	93	150
0.0042	0.0801	2.23	16	33	63
0.0155	0.0671	2.25	92	37	32
0.162	0.139	2.19	124	130	164
0.165	0.164	2.19	176	179	212
0.175	-0.0786	2.12	195	196	190
0.183	-0.227	2.08	186	181	149
0.197	-0.217	2.07	177	171	145
0.194	-0.615	1.97	198	199	229
0.199	-0.426	2.01	190	197	223
0.213	-0.204	2.06	9	17	2
0.213	-0.43	2	48	76	123
0.218	-0.413	2.01	177	190	209
0.22	-0.424	2	28	59	105
0.22	-0.424	2	28	59	105
0.228	-0.423	2	36	68	107
0.228	-0.423	2	36	68	107
0.234	-0.418	2.02	186	192	218
0.24	-0.415	2	186	183	212
0.246	-0.412	1.99	188	186	207
0.246	-0.412	1.99	188	186	207
0.274	0.162	2.13	174	181	210
0.298	-0.0812	2.05	85	89	75
0.295	-0.193	2.02	191	190	162
0.313	0.0609	2.08	199	159	134
0.297	-0.409	1.96	187	180	213
0.297	-0.409	1.96	187	180	213
0.322	-0.0845	2.03	182	183	175
0.329	0.0407	2.06	182	161	140
0.321	-0.22	2	37	45	22
0.327	-0.0802	2.03	187	188	182
0.348	-0.215	1.98	70	69	51
0.351	-0.206	1.98	188	183	153
0.362	-0.168	1.99	188	188	162
0.366	-0.14	1.99	49	56	48
0.364	-0.215	1.97	53	57	40
0.373	-0.143	1.98	188	191	164
0.385	0.0651	2.03	183	161	150
0.371	-0.414	1.91	18	52	97
0.371	-0.414	1.91	18	52	97
0.374	-0.417	1.91	192	193	211
0.41	-0.418	1.89	55	90	130
0.413	-0.595	1.84	176	186	213
0.44	-0.219	1.92	177	176	156
0.433	-0.491	1.85	168	186	210
0.461	-0.198	1.92	61	58	41
0.477	-0.221	1.9	192	193	162
0.492	-0.165	1.9	183	185	171
0.497	-0.204	1.89	59	61	58
1.2	0.295	1.84	46	32	29
-0.872	-0.0745	1.56	204	205	209
-0.869	-0.072	1.57	134	135	139
-0.869	-0.072	1.57	134	135	139
-0.865	-0.0686	1.56	234	235	239
-0.85	-0.162	1.56	83	122	153
-0.85	-0.162	1.56	83	122	153
-0.848	-0.0716	1.57	208	209	213
-0.646	-0.126	1.65	64	65	69
-0.646	-0.126	1.65	64	65	69
-0.608	-0.224	1.65	213	212	217
-0.522	-0.232	1.68	189	180	185
-0.513	-0.263	1.68	110	111	115
-0.482	-0.22	1.7	188	189	194
-0.309	0.0878	1.91	32	77	116
-0.29	0.126	1.93	76	97	124
-0.285	0.134	1.93	28	39	57
-0.276	0.0775	1.94	28	44	67
-0.253	-0.0226	1.95	165	78	50
-0.248	-0.0432	1.95	119	44	23
-0.224	0.134	1.99	37	27	18
-0.223	0.195	1.99	176	178	193
-0.221	0.038	1.98	56	19	11
-0.222	0.19	1.99	14	47	80
-0.207	-0.308	1.96	0	68	110
-0.207	-0.308	1.96	0	68	110
-0.208	0.0364	1.99	65	27	16
-0.187	-0.246	1.99	18	95	137
-0.187	0.188	2.03	22	47	78
-0.178	-0.0259	2.01	41	19	21
-0.176	-0.00814	2.02	74	29	34
-0.175	0.115	2.03	19	55	87
-0.154	0.168	2.06	2	29	58
-0.116	-0.445	2.04	58	130	178
-0.116	-0.44	2.04	59	131	179
-0.0936	-0.123	2.09	137	138	133
-0.093	-0.209	2.08	198	169	155
-0.089	0.0132	2.11	90	123	80
-0.0853	0.0625	2.12	93	118	78
-0.0704	-0.0362	2.13	37	67	65
-0.069	-0.114	2.12	121	102	87
-0.0588	-0.0817	2.13	173	147	132
-0.044	0.0691	2.17	45	55	44
-0.0328	-0.309	2.14	11	79	126
-0.0312	-0.04	2.17	47	76	56
-0.0299	-0.027	2.17	148	126	79
-0.0185	-0.37	2.14	173	185	211
0.0094	-0.118	2.21	55	77	101
0.16	-0.417	2.04	187	185	196
0.175	-0.203	2.09	84	80	55
0.183	-0.0812	2.12	193	193	193
0.202	0.148	2.17	17	46	106
0.199	-0.204	2.07	170	160	135
0.208	0.166	2.17	174	180	204
0.201	-0.196	2.07	168	164	139
0.204	-0.205	2.07	38	36	15
0.204	-0.205	2.07	38	36	15
0.2	-0.415	2.02	176	188	212
0.21	-0.0702	2.1	200	200	202
0.233	0.148	2.15	41	71	125
0.223	-0.434	2	195	196	217
0.228	-0.526	1.97	20	56	104
0.247	0.0384	2.11	194	157	128
0.239	-0.243	2.04	190	196	170
0.248	0.0568	2.11	187	152	122
0.252	0.163	2.14	181	178	197
0.251	0.0433	2.11	63	59	84
0.251	0.0433	2.11	63	59	84
0.248	-0.226	2.04	185	178	134
0.27	0.151	2.13	39	66	113
0.272	-0.2	2.03	189	191	167
0.282	-0.218	2.02	182	185	158
0.307	-0.42	1.95	32	63	109
0.307	-0.42	1.95	32	63	109
0.329	-0.411	1.94	33	68	110
0.344	-0.417	1.93	40	69	111
0.344	-0.417	1.93	40	69	111
0.353	-0.189	1.98	114	117	88
0.359	-0.0739	2.01	195	195	193
0.367	-0.195	1.97	108	111	90
0.371	-0.192	1.97	137	135	114
0.381	-0.139	1.98	187	190	163
0.386	-0.155	1.97	59	61	50
0.387	-0.418	1.97	187	192	212
0.387	-0.182	1.97	185	184	154
0.41	-0.413	1.89	26	70	109
0.41	-0.413	1.89	26	70	109
0.413	-0.414	1.89	177	182	202
0.413	-0.414	1.89	177	182	202
0.429	-0.201	1.94	189	188	160
0.432	-0.201	1.93	186	182	157
0.451	-0.145	1.94	182	172	136
0.453	-0.167	1.93	37	39	28
0.483	-0.274	1.88	27	34	18
0.491	-0.16	1.91	172	180	159
0.488	-0.223	1.89	38	41	24
-0.896	-0.144	1.55	88	126	163
-0.885	-0.146	1.55	93	122	164
-0.884	-0.12	1.55	193	184	175
-0.874	-0.151	1.56	87	136	179
-0.873	-0.147	1.56	84	133	176
-0.867	-0.0785	1.57	148	149	153
-0.864	-0.0721	1.56	127	128	132
-0.864	-0.0721	1.56	127	128	132
-0.853	-0.151	1.56	70	118	156
-0.855	-0.0701	1.57	198	199	203
-0.855	-0.0701	1.57	198	199	203
-0.848	-0.151	1.56	69	109	145
-0.631	-0.0456	1.66	65	66	70
-0.62	-0.222	1.65	212	211	216
-0.588	-0.218	1.69	132	131	136
-0.559	-0.284	1.61	175	116	112
-0.496	-0.236	1.69	146	147	151
-0.476	-0.245	1.73	143	144	149
-0.456	-0.242	1.7	182	183	188
-2.23	-3.91	10.7	29	27	28
-0.298	0.123	1.92	44	59	82
-0.283	0.0612	1.93	40	55	76
-0.258	-0.107	1.94	44	61	71
-0.256	0.0207	1.95	120	35	15
-0.256	0.0207	1.95	120	35	15
-0.254	-0.0311	1.95	177	80	48
-0.25	-0.00138	1.95	129	50	37
-0.247	-0.0387	1.95	178	92	67
-0.233	0.055	1.97	76	32	23
-0.204	-0.0717	1.99	89	23	0
-0.203	-0.0648	1.99	173	90	60
-0.203	0.123	2.01	25	65	100
-0.2	0.26	2.03	173	108	50
-0.192	-0.193	1.99	188	165	149
-0.178	-0.035	2.01	34	10	10
-0.158	0.113	2.05	2	45	80
-0.13	-0.455	2.02	54	135	180
-0.134	0.164	2.09	17	48	79
-0.124	-0.442	2.04	61	133	181
-0.115	-0.0712	2.08	76	86	87
-0.0959	-0.351	2.07	17	109	158
-0.0947	0.0284	2.11	60	90	62
-0.0938	0.0179	2.11	40	72	48
-0.0877	0.138	2.14	162	162	188
-0.0877	0.138	2.14	162	162	188
-0.0778	-0.222	2.1	179	159	150
-0.0749	-0.0139	2.12	39	79	44
-0.0696	-0.0645	2.13	161	143	123
-0.0537	-0.37	2.11	169	183	209
-0.0537	-0.37	2.11	169	183	209
-0.053	0.129	2.17	120	128	147
-0.0495	-0.304	2.12	156	176	203
-0.0495	-0.304	2.12	156	176	203
-0.0441	-0.225	2.13	162	149	166
0.00213	-0.207	2.18	56	79	111
0.167	0.141	2.18	42	70	118
0.158	-0.424	2.04	182	192	204
0.165	-0.437	2.03	199	205	229
0.165	-0.437	2.03	199	205	229
0.17	-0.225	2.09	128	123	94
0.201	-0.219	2.07	33	41	28
0.201	-0.219	2.07	33	41	28
0.21	-0.188	2.07	31	28	13
0.216	-0.428	2	191	197	213
0.231	-0.0795	2.09	194	194	192
0.201	0.105	1.63	48	74	131
0.256	-0.0912	2.07	200	202	199
0.273	-0.186	2.03	189	192	165
0.301	-0.211	2.01	194	194	166
0.332	0.0621	2.07	181	149	124
0.354	0.051	2.05	61	70	109
0.344	-0.403	1.93	38	69	124
0.342	-0.528	1.9	39	80	134
0.354	-0.405	1.93	186	188	201
0.367	-0.426	1.91	187	193	215
0.379	-0.517	1.88	182	189	208
0.409	-0.202	1.95	187	187	161
-0.959	-0.0986	1.53	198	190	187
-0.959	-0.0986	1.53	198	190	187
-0.88	-0.169	1.55	191	205	218
-0.87	-0.156	1.56	91	135	172
-0.86	-0.156	1.56	80	128	166
-0.845	-0.156	1.57	221	220	226
-0.845	-0.156	1.57	221	220	226
-0.607	-0.214	1.65	202	201	206
-0.595	-0.226	1.66	210	209	214
-0.561	-0.053	1.69	203	204	208
-0.555	-0.223	1.67	210	209	214
-0.554	-0.213	1.67	202	201	206
-0.493	-0.213	1.69	211	212	217
-0.484	-0.0653	1.71	200	202	217
-0.461	0.0197	1.72	131	134	143
-0.453	-0.218	1.71	210	211	216
-0.453	-0.218	1.71	210	211	216
-0.273	0.00226	1.93	60	21	4
-0.273	0.00226	1.93	60	21	4
-0.274	0.0953	1.94	77	104	134
-0.268	-0.00515	1.94	88	31	22
-0.265	-0.00123	1.94	166	74	53
-0.263	0.0236	1.95	96	30	18
-0.263	0.0236	1.95	96	30	18
-0.256	0.0104	1.95	81	19	8
-0.229	-0.0813	1.96	134	58	24
-0.222	0.19	1.99	14	47	80
-0.217	0.0495	1.99	70	25	20
-0.214	0.136	2	62	61	56
-0.21	-0.0667	1.98	176	115	50
-0.2	0.0138	2	111	64	58
-0.196	0.0314	2.01	130	66	57
-0.196	0.0314	2.01	130	66	57
-0.193	-0.071	2	131	41	17
-0.0993	0.111	2.12	86	102	118
-0.0981	0.105	2.12	82	95	112
-0.0888	-0.357	2.08	12	100	148
-0.0745	0.0015	2.13	129	115	66
-0.037	-0.284	2.13	7	83	135
-0.0276	0.0315	2.19	127	70	51
-0.0263	-0.0339	2.18	93	118	86
0.139	-0.164	2.12	187	181	167
0.287	-0.168	2.03	189	190	159
0.314	-0.0648	2.04	191	192	184
0.314	-0.0648	2.04	191	192	184
0.312	-0.409	1.95	180	181	209
0.312	-0.409	1.95	180	181	209
0.315	-0.414	1.95	40	77	122
0.359	-0.142	1.99	40	47	40
0.356	-0.423	1.92	56	84	132
0.352	-0.529	1.89	185	193	216
0.377	-0.0639	2	187	187	185
0.397	0.0607	2.03	42	62	99
0.456	-0.305	1.89	181	180	160
0.458	-0.256	1.9	184	183	152
0.486	-0.291	1.87	177	180	153
-4.77	-3.28	7.16	23	24	18
-0.884	-0.12	1.55	194	185	176
-0.857	-0.154	1.56	206	213	219
-0.857	-0.154	1.56	206	213	219
-0.811	-0.135	1.58	219	219	219
-0.726	-0.138	1.61	117	106	102
-0.726	-0.138	1.61	117	106	102
-0.632	-0.201	1.64	202	202	204
-0.632	-0.201	1.64	202	202	204
-0.607	-0.205	1.65	208	209	214
-0.594	-0.216	1.66	205	206	211
-0.593	-0.207	1.66	205	206	211
-0.576	-0.143	1.67	74	73	78
-0.564	-0.142	1.68	180	179	184
-0.525	-0.262	1.68	204	205	210
-0.525	-0.262	1.68	204	205	210
-0.525	-0.262	1.68	204	205	210
-0.442	-0.24	1.71	210	209	217
-0.294	0.128	1.92	26	46	70
-0.225	0.0299	1.98	74	31	25
-0.184	-0.0518	2.01	118	58	47
0.146	-0.168	2.11	188	185	152
0.155	-0.434	2.04	195	196	216
0.168	0.14	2.19	46	74	122
0.168	0.14	2.19	46	74	122
0.228	-0.208	2.05	166	160	126
0.252	-0.522	1.96	30	71	123
0.252	-0.522	1.96	30	71	123
0.273	-0.193	2.03	194	189	167
0.407	-0.193	1.95	186	186	152
0.454	-0.278	1.9	51	57	43
0.454	-0.278	1.9	51	57	43
0.491	-0.173	1.9	183	179	154
0.486	-0.329	1.86	50	70	105
0.496	-0.176	1.9	31	39	28
1.08	0.0226	2.08	105	113	102
0	0	0	255	0	0
-0.968	-0.0884	0.236	255	0	0
