ply
format ascii 1.0
comment written by Chenxi
element vertex 404
property float32 x
property float32 y
property float32 z
property uchar red
property uchar green
property uchar blue
end_header
-0.217	-0.0246	1.65	113	103	102
-0.216	0.0175	1.65	120	99	104
-0.21	-0.0555	1.64	71	62	63
-0.207	-0.162	1.64	109	94	87
-0.208	-0.127	1.64	58	54	55
-0.209	0.0829	1.66	92	76	77
-0.202	-0.0218	1.65	93	76	69
-0.203	0.0178	1.66	110	90	89
-0.202	0.0744	1.66	72	54	54
-0.197	-0.0422	1.65	121	112	113
-0.197	-0.0422	1.65	121	112	113
-0.195	-0.157	1.64	113	101	103
-0.195	-0.0248	1.65	132	111	108
-0.196	0.0858	1.66	93	67	76
-0.194	-0.0349	1.65	129	115	114
-0.194	-0.0349	1.65	129	115	114
-0.192	-0.0486	1.65	130	116	116
-0.184	-0.118	1.65	143	122	121
-0.183	-0.0814	1.65	59	57	58
-0.182	-0.107	1.65	121	108	99
-0.183	0.029	1.66	112	92	94
-0.18	0.00644	1.66	119	99	100
-0.18	0.00644	1.66	119	99	100
-0.168	-0.0418	1.66	101	83	79
-0.163	-0.162	1.66	100	70	68
-0.163	-0.162	1.66	100	70	68
-0.156	-0.112	1.66	73	67	67
-0.153	-0.195	1.66	199	181	171
-0.154	0.12	1.68	85	73	73
-0.154	0.12	1.68	85	73	73
-0.151	0.154	1.69	105	80	73
-0.151	0.154	1.69	105	80	73
-0.147	-0.189	1.66	109	88	95
-0.146	-0.161	1.66	86	64	66
-0.142	-0.158	1.67	133	114	110
-0.137	-0.13	1.67	115	91	89
-0.104	-0.163	1.68	127	111	111
-0.104	-0.176	1.68	129	112	102
-0.102	-0.186	1.68	133	122	126
-0.095	-0.183	1.68	112	96	97
-0.095	-0.183	1.68	112	96	97
-0.089	-0.185	1.69	137	112	115
-0.073	0.272	1.51	24	24	22
-0.0576	0.193	1.56	89	96	78
-0.0377	0.356	1.29	100	118	132
-0.00732	0.362	1.3	133	159	176
-0.00441	0.00664	1.56	133	118	99
-0.00363	0.372	1.31	123	155	166
0.00128	0.37	1.31	137	163	176
0.0127	0.297	1.39	177	186	165
0.0148	-0.0656	1.56	210	188	175
0.0156	-0.042	1.56	146	116	106
0.017	-0.0696	1.57	98	77	60
0.017	-0.0696	1.57	98	77	60
0.0149	0.396	1.36	75	72	101
0.0169	0.395	1.31	65	135	223
0.018	0.394	1.35	81	75	109
0.021	-0.0118	1.56	60	57	52
0.021	-0.0118	1.56	60	57	52
0.0202	0.393	1.35	72	81	96
0.0241	0.0453	1.57	148	161	151
0.0265	-0.0445	1.56	174	168	154
0.0353	-0.0502	1.56	176	168	145
0.0367	-0.043	1.56	174	183	162
0.0393	-0.0463	1.56	100	90	89
0.0393	-0.0463	1.56	100	90	89
0.0441	0.0478	1.57	142	152	144
0.0439	-0.0227	1.56	177	185	170
0.0473	-0.0418	1.56	51	56	49
0.0433	0.33	1.31	145	134	168
0.0436	0.381	1.31	55	54	96
0.0568	0.0307	1.57	80	60	59
0.058	-0.0735	1.57	182	145	127
0.0572	-0.0696	1.57	195	169	146
0.0576	-0.00116	1.56	161	172	166
0.0605	-0.0896	1.58	101	98	83
0.0659	-0.0708	1.58	205	185	160
0.0654	-0.0289	1.57	136	143	127
0.0749	0.115	1.72	35	33	46
0.0832	-0.185	1.76	123	103	102
0.0646	0.32	1.36	152	160	163
0.0652	0.329	1.32	162	163	183
0.0812	0.0392	1.59	107	123	120
0.07	0.316	1.36	134	136	149
0.0886	0.0515	1.6	43	41	55
0.0732	0.329	1.33	157	153	168
0.0742	0.337	1.33	81	73	122
0.0742	0.337	1.33	81	73	122
0.091	-0.09	1.6	93	101	104
0.0953	0.000696	1.58	162	172	171
0.0972	-0.0224	1.58	138	147	130
0.0994	0.0524	1.6	59	59	61
0.104	-0.035	1.59	85	77	66
0.0863	0.335	1.33	80	84	109
0.105	-0.0622	1.59	77	83	71
0.0906	0.359	1.35	113	122	117
0.09	0.328	1.33	164	156	169
0.109	-0.0514	1.59	74	76	65
0.11	-0.0109	1.59	129	135	123
0.0937	0.326	1.33	168	155	173
0.0994	0.354	1.35	134	165	186
0.0994	0.354	1.35	134	165	186
0.102	0.347	1.35	138	161	175
0.126	-0.0168	1.6	166	177	163
0.123	0.376	1.36	86	82	107
0.13	0.36	1.36	138	167	185
0.142	0.347	1.36	142	166	168
0.147	0.352	1.37	148	174	187
0.15	0.337	1.37	38	43	73
0.201	0.359	1.39	87	102	109
0.292	0.347	1.44	124	155	176
-0.516	0.25	3.16	215	207	194
-0.215	0.0341	1.65	125	106	108
-0.21	-0.105	1.64	75	59	62
-0.207	-0.08	1.64	49	44	48
-0.207	0.00952	1.65	78	62	63
-0.206	0.0335	1.65	81	66	69
-0.206	0.0335	1.65	81	66	69
-0.204	-0.0173	1.65	124	106	104
-0.205	0.102	1.66	89	66	74
-0.202	0.106	1.66	114	95	97
-0.199	-0.108	1.65	98	84	83
-0.193	-0.0203	1.65	81	62	68
-0.191	-0.156	1.64	79	71	69
-0.191	-0.156	1.64	79	71	69
-0.184	-0.193	1.64	194	177	170
-0.182	-0.0528	1.66	129	113	113
-0.176	-0.117	1.65	118	105	99
-0.176	-0.0811	1.66	121	107	104
-0.169	-0.14	1.65	79	68	66
-0.168	0.109	1.68	82	61	66
-0.167	0.134	1.68	65	54	60
-0.167	0.134	1.68	65	54	60
-0.157	-0.122	1.66	79	68	66
-0.154	-0.116	1.66	120	106	106
-0.139	-0.111	1.67	105	96	99
-0.138	-0.15	1.67	105	85	86
-0.129	-0.173	1.67	99	89	90
-0.128	-0.148	1.67	74	60	59
-0.13	0.157	1.7	77	56	61
-0.124	0.15	1.7	73	53	54
-0.116	-0.181	1.67	139	119	120
-0.0695	0.216	1.55	120	95	73
-0.073	-0.197	1.69	120	99	106
-0.0659	-0.197	1.7	115	92	100
-0.0669	-0.186	1.7	99	70	66
-0.0226	0.354	1.3	107	115	138
-0.0195	-0.0542	1.56	185	158	141
-0.00992	0.354	1.31	104	125	142
-0.00622	0.0111	1.56	57	49	47
-0.00622	0.0111	1.56	57	49	47
-0.00328	0.377	1.31	114	128	154
0.000739	0.367	1.31	106	123	133
0.000739	0.367	1.31	106	123	133
0.0108	0.358	1.31	137	162	182
0.0141	0.0236	1.56	91	72	58
0.0134	0.396	1.32	66	140	227
0.0342	0.0103	1.56	131	109	96
0.0403	-0.0298	1.56	175	185	177
0.0424	-0.0977	1.58	200	163	155
0.0394	0.382	1.32	84	84	110
0.0431	0.348	1.33	38	31	64
0.0528	-0.00417	1.56	77	87	78
0.055	-0.0376	1.56	56	56	54
0.0558	-0.00819	1.56	156	157	151
0.0587	-0.00926	1.56	158	163	159
0.0621	-0.0171	1.56	155	169	154
0.0699	-0.0333	1.57	167	182	175
0.0767	-0.0146	1.57	157	174	164
0.0794	-0.0306	1.57	167	179	165
0.0929	0.112	1.69	38	35	52
0.08	0.328	1.33	157	152	174
0.0795	0.335	1.32	78	77	119
0.0799	0.336	1.33	78	77	119
0.105	-0.00152	1.59	138	150	130
0.105	0.351	1.34	139	165	180
0.105	0.351	1.34	139	165	180
0.107	0.329	1.35	182	161	180
0.127	-0.0327	1.6	164	174	166
0.127	-0.0327	1.6	164	174	166
0.13	-0.0726	1.62	87	93	93
0.113	0.334	1.34	79	71	122
0.124	0.325	1.35	198	198	208
0.148	0.367	1.37	131	158	179
0.19	0.228	1.46	39	50	54
0.211	0.363	1.4	128	153	175
0.213	0.357	1.4	140	166	183
0.233	0.343	1.41	139	170	175
-0.227	-0.153	1.63	114	97	90
-0.219	-0.0989	1.64	109	101	98
-0.216	-0.0107	1.65	123	103	104
-0.215	0.024	1.65	121	106	109
-0.212	0.164	1.66	114	86	82
-0.205	0.0878	1.66	95	77	75
-0.2	0.00954	1.65	109	86	92
-0.2	0.0649	1.66	82	57	61
-0.198	-0.00504	1.65	82	66	66
-0.197	0.0045	1.65	68	55	49
-0.197	0.0045	1.65	68	55	49
-0.195	0.129	1.67	68	53	56
-0.195	0.129	1.67	68	53	56
-0.187	-0.108	1.65	80	71	66
-0.183	-0.131	1.65	72	52	53
-0.176	0.122	1.67	63	48	51
-0.174	0.147	1.68	116	97	99
-0.166	-0.118	1.66	65	55	54
-0.139	-0.163	1.67	90	75	70
-0.0936	0.219	1.52	145	117	69
-0.0649	-0.202	1.7	193	177	164
-0.0593	-0.198	1.7	111	99	99
-0.0354	0.369	1.29	88	102	111
-0.0354	0.369	1.29	88	102	111
-0.0314	0.367	1.29	92	101	106
-0.028	0.371	1.29	129	152	166
-0.0154	0.214	1.57	53	81	66
-0.0125	0.037	1.57	83	86	75
0.00473	0.359	1.31	127	160	179
0.0137	-0.00667	1.56	72	52	43
0.0201	0.357	1.31	133	159	176
0.0245	-0.0351	1.56	75	76	70
0.0294	-0.0643	1.57	185	165	141
0.039	-0.0633	1.57	190	178	162
0.0391	-0.0465	1.56	100	90	89
0.0391	-0.0465	1.56	100	90	89
0.0659	0.0165	1.57	115	123	112
0.0741	0.0187	1.57	125	127	122
0.0802	0.0308	1.58	146	169	159
0.0925	0.0273	1.59	155	168	159
0.108	-0.00636	1.59	169	181	169
0.105	0.351	1.34	139	165	180
0.116	0.329	1.35	81	59	98
0.148	0.329	1.37	59	57	94
0.177	0.293	1.45	26	31	37
0.172	0.36	1.38	128	166	185
0.217	0.347	1.4	128	155	182
0.218	0.357	1.4	144	171	182
0.219	0.336	1.4	99	115	140
0.224	0.357	1.4	144	170	185
0.224	0.357	1.4	144	170	185
0.234	0.331	1.4	41	40	54
-0.224	0.0518	1.65	112	99	106
-0.212	0.121	1.66	129	110	112
-0.2	-0.12	1.64	75	59	62
-0.186	-0.0567	1.65	87	78	83
-0.177	0.0856	1.67	85	74	72
-0.165	-0.0758	1.66	124	95	97
-0.153	-0.157	1.66	87	71	72
-0.146	-0.103	1.67	76	58	56
-0.0628	0.195	1.55	150	148	123
-0.0394	-0.018	1.56	152	134	122
-0.0207	0.368	1.29	127	151	161
-0.00178	-0.0254	1.56	171	154	146
0.00169	-0.0342	1.56	161	140	123
0.0159	0.019	1.56	116	93	75
0.017	-0.0335	1.56	87	84	75
0.0185	-0.00837	1.56	137	132	128
0.0174	0.374	1.31	124	151	172
0.0457	0.381	1.32	92	81	113
0.0457	0.381	1.32	92	81	113
0.0615	0.0135	1.57	162	172	173
0.0567	0.345	1.33	40	40	52
0.0705	-0.014	1.57	159	167	154
0.0794	-0.0305	1.57	167	180	170
0.0804	-0.00836	1.57	167	177	169
0.0818	-0.0345	1.57	93	83	81
0.0887	-0.0154	1.58	53	56	61
0.0887	-0.0154	1.58	53	56	61
0.0779	0.371	1.34	127	153	180
0.105	-0.0725	1.59	200	204	181
0.121	0.351	1.36	135	162	179
0.206	0.363	1.4	123	149	172
0.232	0.336	1.4	110	131	148
0.241	0.373	1.42	90	73	115
0.239	0.37	1.41	90	73	115
0.246	0.37	1.41	82	68	103
0.256	0.351	1.42	131	156	178
0.256	0.351	1.42	131	156	178
-0.223	-0.169	1.63	68	53	48
-0.223	-0.0684	1.64	43	42	38
-0.223	-0.0684	1.64	43	42	38
-0.211	-0.179	1.63	118	98	89
-0.207	0.14	1.66	93	75	75
-0.205	-0.069	1.65	75	69	69
-0.2	-0.0462	1.65	84	64	65
-0.2	0.00997	1.65	104	84	93
-0.198	0.138	1.66	96	74	77
-0.198	0.138	1.66	96	74	77
-0.192	-0.0291	1.65	85	66	59
-0.183	-0.0815	1.65	66	62	63
-0.183	0.0988	1.67	99	85	82
-0.183	0.0988	1.67	99	85	82
-0.179	-0.06	1.66	94	71	77
-0.152	-0.152	1.66	145	133	135
-0.123	0.166	1.7	53	48	44
-0.0949	-0.17	1.68	141	109	110
-0.0692	0.216	1.55	114	94	70
-0.0138	0.369	1.3	126	145	149
0.00754	0.012	1.56	129	106	92
0.0198	-0.039	1.56	162	150	136
0.0447	-0.00122	1.56	46	48	47
0.0869	-0.0748	1.59	189	201	165
0.0842	0.37	1.34	132	161	179
0.0878	0.334	1.34	47	50	91
0.106	-0.0407	1.59	151	140	118
0.13	-0.0207	1.61	127	141	118
0.11	0.33	1.34	74	57	111
0.125	0.343	1.36	127	150	158
0.131	0.377	1.36	75	69	107
0.25	0.334	1.41	113	145	166
-0.217	-0.115	1.64	109	97	99
-0.211	-0.0877	1.64	80	62	62
-0.211	-0.0877	1.64	80	62	62
-0.196	-0.166	1.64	89	73	73
-0.194	-0.145	1.64	76	61	54
-0.194	0.102	1.66	105	89	89
-0.187	0.163	1.67	89	60	56
-0.175	-0.1	1.65	107	90	82
-0.175	-0.1	1.65	107	90	82
-0.174	0.117	1.68	94	83	81
-0.103	-0.17	1.68	106	86	87
-0.0382	0.38	1.29	108	134	159
0.00866	-0.0218	1.56	71	60	54
0.00866	-0.0218	1.56	71	60	54
0.027	-0.0304	1.56	187	194	186
0.0248	0.382	1.31	85	70	109
0.0398	-0.0633	1.57	193	177	161
0.0406	0.334	1.31	45	50	92
0.0984	0.364	1.36	133	166	185
0.105	0.361	1.35	140	172	187
0.106	0.364	1.36	140	172	187
0.115	0.373	1.36	76	56	81
0.196	0.363	1.39	108	137	155
0.258	0.335	1.41	116	143	162
-0.223	-0.149	1.63	60	49	47
-0.217	-0.129	1.63	121	99	101
-0.212	0.0925	1.66	129	114	117
-0.199	0.146	1.66	120	102	102
-0.113	-0.182	1.67	136	118	114
-0.0174	-0.162	1.67	84	93	92
0.00271	0.222	1.58	49	69	60
0.0325	0.0435	1.57	146	165	161
0.0563	0.0172	1.57	95	97	84
0.0829	-0.0183	1.57	158	175	167
0.0902	-0.0506	1.58	162	165	146
0.114	0.36	1.35	141	177	193
0.132	0.329	1.35	63	62	93
0.21	0.368	1.4	58	53	75
0.217	0.352	1.4	113	145	160
-0.218	-0.162	1.63	123	93	101
-0.211	-0.128	1.64	67	63	62
-0.196	0.108	1.66	91	71	73
-0.179	-0.132	1.65	86	66	67
-0.176	-0.11	1.65	81	61	60
-0.175	-0.0246	1.66	124	99	103
-0.169	-0.0638	1.66	109	97	97
-0.167	0.141	1.68	115	86	91
-0.167	0.141	1.68	115	86	91
-0.16	-0.134	1.66	55	45	54
-0.135	-0.169	1.67	121	111	109
-0.0956	0.212	1.51	158	127	72
-0.0714	0.406	1.28	135	209	255
-0.0775	-0.201	1.69	194	176	172
-0.022	-0.175	1.67	104	115	117
-0.00527	0.386	1.3	93	100	93
0.0139	0.35	1.31	115	139	141
0.0345	-0.00435	1.56	157	138	108
0.0339	0.349	1.32	100	106	118
0.0404	0.0116	1.56	109	88	69
0.0431	-0.148	1.62	211	191	167
0.0682	0.0384	1.58	158	169	165
0.0575	0.349	1.33	125	153	164
0.0701	0.37	1.34	124	144	168
0.101	-0.00483	1.58	138	147	126
0.101	-0.00483	1.58	138	147	126
0.1	0.331	1.34	53	52	94
0.149	0.371	1.37	71	55	66
0.179	0.295	1.45	47	52	58
0.235	0.367	1.41	54	46	67
-0.212	0.111	1.66	127	113	113
-0.208	0.0123	1.65	80	62	62
-0.171	-0.176	1.65	96	75	72
-0.173	0.13	1.68	103	81	84
-0.173	0.13	1.68	103	81	84
-0.0354	0.385	1.29	76	79	62
-0.0196	0.358	1.3	86	104	128
0.0339	0.383	1.34	52	50	64
0.062	0.0128	1.57	160	175	168
0.0624	0.381	1.33	93	88	128
0.203	0.367	1.39	51	48	59
-0.214	0.00687	1.65	118	107	105
-0.194	-0.0126	1.65	133	117	127
-0.194	-0.0126	1.65	133	117	127
-0.186	0.0882	1.67	109	97	97
-0.186	0.153	1.67	123	97	96
-0.169	-0.151	1.65	88	67	64
-0.14	0.181	1.7	70	55	50
-0.0437	0.361	1.29	84	103	117
-0.0306	0.388	1.29	119	125	121
-0.0234	0.383	1.3	68	70	57
-0.0209	-0.167	1.67	28	37	36
0.0468	0.377	1.33	64	52	74
0.0916	0.0455	1.6	133	146	155
0	0	0	255	0	0
-0.966	-0.0469	0.256	255	0	0
